# .PCD v0.7 - Point Cloud Data file format
VERSION 0.7
FIELDS x y z rgb
SIZE 4 4 4 4
TYPE F F F F
COUNT 1 1 1 1
WIDTH 1141
HEIGHT 1
VIEWPOINT 0 0 0 1 0 0 0
POINTS 1141
DATA ascii
0.39607593 0.17476641 0.018089101 nan
0.39641634 0.17646678 0.01831311 nan
0.39709863 0.17982514 0.018876135 nan
0.39744845 0.18164894 0.018932074 nan
0.39831531 0.1870437 0.01707463 nan
0.39865255 0.18870631 0.017346695 nan
0.3989791 0.19029723 0.017653532 nan
0.39933711 0.1921058 0.017843232 nan
0.39968508 0.19388479 0.01797922 nan
0.40037239 0.19730863 0.018453121 nan
0.40126425 0.20285723 0.016546063 nan
0.40157866 0.20437001 0.016884983 nan
0.40224421 0.20763963 0.017448448 nan
0.40261087 0.20946535 0.017703064 nan
0.40288347 0.21084926 0.017832041 nan
0.40331608 0.2130647 0.017992288 nan
0.4036445 0.2146365 0.018365413 nan
0.4040561 0.21679789 0.018396243 nan
0.40491116 0.22206378 0.016690016 nan
0.40525219 0.22384617 0.016734749 nan
0.40575236 0.22650591 0.01669617 nan
0.40611196 0.22831365 0.016906708 nan
0.40647876 0.23011351 0.01722227 nan
0.40707752 0.2330485 0.01774399 nan
0.40744641 0.23481071 0.018170588 nan
0.40782976 0.23679125 0.01827316 nan
0.40867367 0.24199706 0.016570091 nan
0.40907088 0.24403572 0.016707264 nan
0.40981284 0.24781311 0.017033443 nan
0.41055807 0.25151658 0.01756788 nan
0.41099593 0.25380561 0.0176237 nan
0.41135859 0.25562927 0.017835073 nan
0.41168591 0.25718576 0.018229581 nan
0.4120115 0.25870055 0.0186987 nan
0.41233948 0.26026508 0.019083031 nan
0.41305315 0.26380762 0.019604057 nan
0.41372395 0.26695246 0.020515241 nan
0.41409248 0.26881924 0.020699009 nan
0.41490051 0.27367485 0.019362055 nan
0.41541281 0.27653283 0.019017607 nan
0.41612136 0.28063276 0.018205322 nan
0.4172385 0.28697857 0.017194852 nan
0.4176234 0.28890982 0.017428458 nan
0.41806248 0.29125634 0.01736822 nan
0.41845456 0.29311699 0.017849624 nan
0.41880804 0.29491749 0.018003084 nan
0.41925132 0.29718071 0.018183157 nan
0.4196853 0.29942587 0.018292695 nan
0.42001089 0.30096748 0.018700577 nan
0.42110288 0.30710712 0.017857157 nan
0.42193156 0.31127039 0.018348299 nan
0.42241836 0.31387609 0.018271811 nan
0.42282072 0.31595457 0.018380158 nan
0.42324302 0.31810826 0.018557496 nan
0.42369151 0.32042196 0.018685371 nan
0.42471755 0.32681087 0.01647868 nan
0.42543632 0.33043414 0.016876981 nan
0.42581257 0.33232364 0.017101847 nan
0.42687193 0.33865824 0.015420124 nan
0.42734107 0.34111491 0.015470937 nan
0.42822334 0.34566051 0.015736036 nan
0.42865035 0.34776345 0.016085833 nan
0.42896128 0.34923467 0.016477369 nan
0.42942178 0.35161364 0.016601123 nan
0.42979836 0.35349917 0.016839147 nan
0.43014324 0.35517928 0.017163396 nan
0.43058181 0.35741702 0.017344788 nan
0.43160316 0.36355916 0.015644401 nan
0.43209076 0.36612454 0.015669629 nan
0.43249351 0.36810943 0.01599621 nan
0.4329955 0.37076408 0.015991047 nan
0.43344077 0.373045 0.016155221 nan
0.43382856 0.37499756 0.01637505 nan
0.43470484 0.38021225 0.015041664 nan
0.43515092 0.38252178 0.015149876 nan
0.43557572 0.38464203 0.01543355 nan
0.43598899 0.38669699 0.015727326 nan
0.43639186 0.38861638 0.016204759 nan
0.43678904 0.39066297 0.016323641 nan
0.43732423 0.39347255 0.016365245 nan
0.43774301 0.39557964 0.016606554 nan
0.43824944 0.39821824 0.016691454 nan
0.43917054 0.40374947 0.015175998 nan
0.44001403 0.40799707 0.015653528 nan
0.44044328 0.41020584 0.015788794 nan
0.4409495 0.41276485 0.01605323 nan
0.44159445 0.41628471 0.015797518 nan
0.44199222 0.41826433 0.016076349 nan
0.44254372 0.42113978 0.016163953 nan
0.44334015 0.42590708 0.014888823 nan
0.44382274 0.42838982 0.015042022 nan
0.44472507 0.43294293 0.015531927 nan
0.44517592 0.43524444 0.015715837 nan
0.44566238 0.43772644 0.015917502 nan
0.44618243 0.4404155 0.016051777 nan
0.44711238 0.44597325 0.014582545 nan
0.44762301 0.44858104 0.014788806 nan
0.44855684 0.45336124 0.015140146 nan
0.44944572 0.45783064 0.015658833 nan
0.44996127 0.46052492 0.015726715 nan
0.45055884 0.46369526 0.01569736 nan
0.45143527 0.46885169 0.014498651 nan
0.45189995 0.47121811 0.014701396 nan
0.45238236 0.47368157 0.014896318 nan
0.45288977 0.47628203 0.015080482 nan
0.45339563 0.47889063 0.015227199 nan
0.4539147 0.48155278 0.015410736 nan
0.45440477 0.48408544 0.015540391 nan
0.45495927 0.48700121 0.015572868 nan
0.45541537 0.48929301 0.015842274 nan
-0.38808036 0.052181296 0.35520044 -1.7014636e+38
-0.38791442 0.052113608 0.35618353 -1.7014636e+38
-0.3877055 0.053775214 0.35556 -1.7014636e+38
-0.38744926 0.055819526 0.35478842 -1.7014636e+38
-0.38718358 0.057949379 0.35397768 -1.7014636e+38
-0.38693425 0.059918314 0.35324866 -1.7014636e+38
-0.38668811 0.061849482 0.35254219 -1.7014636e+38
-0.38644522 0.063750476 0.35185015 -1.7014636e+38
-0.38618794 0.065790117 0.35108945 -1.7014636e+38
-0.38593262 0.067813754 0.35033479 -1.7014636e+38
-0.38567901 0.069819137 0.34959042 -1.7014636e+38
-0.38542303 0.0718375 0.34884518 -1.7014636e+38
-0.3851701 0.073843583 0.34809625 -1.7014636e+38
-0.38491565 0.075850628 0.34735459 -1.7014636e+38
-0.38465735 0.077891618 0.34659809 -1.7014636e+38
-0.384399 0.079915293 0.34586012 -1.7014636e+38
-0.38414317 0.081950694 0.34509587 -1.7014636e+38
-0.3838762 0.084054828 0.34431967 -1.7014636e+38
-0.38362253 0.086079583 0.34355485 -1.7014636e+38
-0.38335714 0.088145494 0.34281063 -1.7014636e+38
-0.38310027 0.090212896 0.34201807 -1.7014636e+38
-0.38283855 0.092228189 0.34130755 -1.7014636e+38
-0.38257247 0.094369277 0.340487 -1.7014636e+38
-0.38230932 0.096449457 0.33971524 -1.7014636e+38
-0.38204244 0.098548174 0.3389442 -1.7014636e+38
-0.38178006 0.10062371 0.33817318 -1.7014636e+38
-0.38151503 0.10272052 0.33739403 -1.7014636e+38
-0.38124827 0.10481252 0.33662951 -1.7014636e+38
-0.38098586 0.10689844 0.3358475 -1.7014636e+38
-0.38070619 0.10911589 0.33502018 -1.7014636e+38
-0.38042819 0.11131378 0.33420455 -1.7014636e+38
-0.38015434 0.11346956 0.33341086 -1.7014636e+38
-0.37989402 0.11552107 0.33265418 -1.7014636e+38
-0.37962666 0.117631 0.33187383 -1.7014636e+38
-0.37935475 0.11977382 0.33108351 -1.7014636e+38
-0.37908447 0.12190604 0.33029538 -1.7014636e+38
-0.37880957 0.12408861 0.32947904 -1.7014636e+38
-0.37853202 0.12630472 0.32864147 -1.7014636e+38
-0.37826219 0.12844519 0.32784218 -1.7014636e+38
-0.37798858 0.13061488 0.32703251 -1.7014636e+38
-0.37770328 0.13283008 0.32623845 -1.7014636e+38
-0.3774246 0.13504383 0.32540962 -1.7014636e+38
-0.37713757 0.13728216 0.32460052 -1.7014636e+38
-0.37685183 0.13957796 0.32372302 -1.7014636e+38
-0.37658641 0.14168304 0.32293707 -1.7014636e+38
-0.3762812 0.14403597 0.32210559 -1.7014636e+38
-0.37600273 0.14624102 0.32128501 -1.7014636e+38
-0.3757109 0.14853175 0.32044625 -1.7014636e+38
-0.37542537 0.1507785 0.31961989 -1.7014636e+38
-0.37513807 0.15305118 0.31877565 -1.7014636e+38
-0.37484682 0.15534911 0.31792617 -1.7014636e+38
-0.37454829 0.15770781 0.31705189 -1.7014636e+38
-0.37424722 0.16011031 0.31614482 -1.7014636e+38
-0.37395012 0.16243328 0.3153007 -1.7014636e+38
-0.37366551 0.16468178 0.31446749 -1.7014636e+38
-0.37336886 0.16702148 0.31360304 -1.7014636e+38
-0.37306955 0.16939017 0.3127225 -1.7014636e+38
-0.37276834 0.17175335 0.31185812 -1.7014636e+38
-0.37247479 0.17406291 0.31100887 -1.7014636e+38
-0.37218052 0.17641059 0.31012291 -1.7014636e+38
-0.37188292 0.17874056 0.30927423 -1.7014636e+38
-0.37158456 0.18108606 0.30841297 -1.7014636e+38
-0.37128899 0.18341689 0.30755213 -1.7014636e+38
-0.37098652 0.18580595 0.30666706 -1.7014636e+38
-0.37066945 0.18831633 0.30573303 -1.7014636e+38
-0.37037146 0.19064291 0.30488998 -1.7014636e+38
-0.37007815 0.19298366 0.3040061 -1.7014636e+38
-0.36976388 0.19545943 0.30309349 -1.7014636e+38
-0.36944395 0.1979654 0.30217987 -1.7014636e+38
-0.36912468 0.2005153 0.30121562 -1.7014636e+38
-0.36881265 0.20296696 0.30031642 -1.7014636e+38
-0.36849678 0.20545191 0.29940289 -1.7014636e+38
-0.36819947 0.20780103 0.29853207 -1.7014636e+38
-0.36788571 0.21026088 0.29763368 -1.7014636e+38
-0.36756068 0.21283913 0.29667079 -1.7014636e+38
-0.36724293 0.21536255 0.29572657 -1.7014636e+38
-0.36691979 0.21789192 0.29480553 -1.7014636e+38
-0.36661586 0.22026725 0.29394317 -1.7014636e+38
-0.36630088 0.22274971 0.2930274 -1.7014636e+38
-0.36597991 0.22527665 0.29209706 -1.7014636e+38
-0.3656525 0.22785005 0.29115251 -1.7014636e+38
-0.36533445 0.23037003 0.2902135 -1.7014636e+38
-0.36499429 0.2330544 0.28922081 -1.7014636e+38
-0.36466986 0.23562315 0.2882649 -1.7014636e+38
-0.36434078 0.23822227 0.28730214 -1.7014636e+38
-0.36401814 0.24075909 0.28637031 -1.7014636e+38
-0.36368948 0.24333504 0.28542995 -1.7014636e+38
-0.36335558 0.24596801 0.2844578 -1.7014636e+38
-0.36302423 0.2485791 0.28349471 -1.7014636e+38
-0.36268118 0.25130314 0.28247553 -1.7014636e+38
-0.36235246 0.25388551 0.28152862 -1.7014636e+38
-0.36200321 0.25662985 0.2805219 -1.7014636e+38
-0.36167142 0.25924942 0.27955228 -1.7014636e+38
-0.36133462 0.26191121 0.27856508 -1.7014636e+38
-0.36099747 0.26455584 0.27759826 -1.7014636e+38
-0.36065003 0.26729235 0.27658987 -1.7014636e+38
-0.36029926 0.27005726 0.27556956 -1.7014636e+38
-0.35995436 0.27279061 0.27455074 -1.7014636e+38
-0.35961416 0.27547175 0.27356157 -1.7014636e+38
-0.35926551 0.27822477 0.2725423 -1.7014636e+38
-0.35890973 0.28101665 0.27152073 -1.7014636e+38
-0.3585645 0.28375742 0.27049571 -1.7014636e+38
-0.35821173 0.28653148 0.26947671 -1.7014636e+38
-0.35786325 0.28927231 0.26846945 -1.7014636e+38
-0.35750887 0.29203489 0.26747137 -1.7014636e+38
-0.35715345 0.29487127 0.26640046 -1.7014636e+38
-0.35678682 0.29776236 0.26533276 -1.7014636e+38
-0.35640314 0.30068237 0.26432782 -1.7014636e+38
-0.35605326 0.30355507 0.26318786 -1.7014636e+38
-0.35569829 0.30635607 0.26215214 -1.7014636e+38
-0.35533595 0.3092218 0.26108789 -1.7014636e+38
-0.35495409 0.31220669 0.26000386 -1.7014636e+38
-0.35458088 0.31515875 0.25890747 -1.7014636e+38
-0.35422847 0.31792668 0.25789285 -1.7014636e+38
-0.35387409 0.32079804 0.25677893 -1.7014636e+38
-0.35351473 0.32358423 0.25578314 -1.7014636e+38
-0.35316738 0.32636148 0.25473076 -1.7014636e+38
-0.35279649 0.32926053 0.25367814 -1.7014636e+38
-0.35241395 0.33228981 0.2525506 -1.7014636e+38
-0.35199243 0.33567202 0.25126088 -1.7014636e+38
-0.35159102 0.33886456 0.25006297 -1.7014636e+38
-0.35124826 0.34151977 0.24911556 -1.7014636e+38
-0.35102102 0.34313312 0.24864408 -1.7014636e+38
-0.35123345 0.34306023 0.24755545 -1.7014636e+38
-0.35168555 0.34261543 0.24554753 -1.7014636e+38
-0.35249162 0.34136069 0.2424593 -1.7014636e+38
-0.35270253 0.34126264 0.24140587 -1.7014636e+38
-0.3531509 0.34090275 0.23932783 -1.7014636e+38
-0.35418746 0.33938569 0.23525393 -1.7014636e+38
-0.35464615 0.3389594 0.23319003 -1.7014636e+38
-0.35543263 0.33783683 0.23006849 -1.7014636e+38
-0.35588196 0.3374725 0.2279899 -1.7014636e+38
-0.35689187 0.33619541 0.22380647 -1.7014636e+38
-0.35792232 0.33473921 0.21970116 -1.7014636e+38
-0.35837761 0.33435041 0.21761589 -1.7014636e+38
-0.35941091 0.33289635 0.21349263 -1.7014636e+38
-0.35983336 0.33279473 0.21128181 -1.7014636e+38
-0.36088735 0.33116281 0.20723435 -1.7014636e+38
-0.36133629 0.330872 0.20507967 -1.7014636e+38
-0.36155537 0.33075184 0.20400502 -1.7014636e+38
-0.3625716 0.32942456 0.1998404 -1.7014636e+38
-0.36279896 0.32927257 0.19875407 -1.7014636e+38
-0.36301968 0.32914484 0.19767857 -1.7014636e+38
-0.36408111 0.32746881 0.1936373 -1.7014636e+38
-0.36453646 0.32708228 0.19154942 -1.7014636e+38
-0.36555061 0.32586664 0.18727711 -1.7014636e+38
-0.36705682 0.3239255 0.18107675 -1.7014636e+38
-0.36728409 0.32373327 0.18003388 -1.7014636e+38
-0.36833858 0.32213834 0.17594422 -1.7014636e+38
-0.36856106 0.32200283 0.17486736 -1.7014636e+38
-0.36879596 0.32178843 0.17380625 -1.7014636e+38
-0.36983013 0.32035387 0.16965741 -1.7014636e+38
-0.37006426 0.32015336 0.16858578 -1.7014636e+38
-0.37029561 0.31992131 0.16756284 -1.7014636e+38
-0.37115633 0.32104501 0.16164036 -1.7014636e+38
-0.37126565 0.32240188 0.15959463 -1.7014636e+38
-0.37406212 0.31754231 0.14942034 -1.7014636e+38
-0.37477407 0.31724733 0.14582621 -1.7014636e+38
-0.37537429 0.31587806 0.1439902 -1.7014636e+38
-0.37804082 0.30502039 0.14092015 -1.7014636e+38
-0.37975019 0.30302155 0.13366592 -1.7014636e+38
-0.38290116 0.29463199 0.12530674 -1.7014636e+38
-0.38400298 0.29251364 0.12151493 -1.7014636e+38
-0.3851136 0.29215658 0.11579853 -1.7014636e+38
-0.3852956 0.29251373 0.1144188 -1.7014636e+38
-0.38613945 0.29091746 0.11148707 -1.7014636e+38
-0.38761479 0.29163879 0.10261924 -1.7014636e+38
-0.38719594 0.29621792 0.10003962 -1.7014636e+38
-0.38601631 0.30285096 0.099448122 -1.7014636e+38
-0.38699052 0.30000278 0.097134598 -1.7014636e+38
-0.38751283 0.29896021 0.095378093 -1.7014636e+38
-0.38860828 0.29703069 0.091420226 -1.7014636e+38
-0.38905013 0.29705656 0.088966958 -1.7014636e+38
-0.3892642 0.29710606 0.087739035 -1.7014636e+38
-0.38970196 0.29713583 0.085304029 -1.7014636e+38
-0.38990805 0.29744726 0.083841003 -1.7014636e+38
-0.39100277 0.29549953 0.079906344 -1.7014636e+38
-0.39148507 0.29499775 0.077793434 -1.7014636e+38
-0.39257574 0.29320997 0.07371074 -1.7014636e+38
-0.39281073 0.29310244 0.072535247 -1.7014636e+38
-0.39304078 0.29299605 0.071385697 -1.7014636e+38
-0.39367485 0.29134119 0.069667965 -1.7014636e+38
-0.39455128 0.28947741 0.066842437 -1.7014636e+38
-0.39548245 0.29382008 0.057103448 -1.7014636e+38
-0.39538866 0.29709733 0.054126605 -1.7014636e+38
-0.39529657 0.30032003 0.051198244 -1.7014636e+38
-0.39520597 0.30360869 0.048191652 -1.7014636e+38
-0.39490807 0.30653608 0.046708018 -1.7014636e+38
-0.39463222 0.30927998 0.045298859 -1.7014636e+38
-0.39434862 0.3120625 0.043891087 -1.7014636e+38
-0.39423949 0.31553519 0.040790051 -1.7014636e+38
-0.39394444 0.31842169 0.039334342 -1.7014636e+38
-0.39402413 0.32249546 0.034556374 -1.7014636e+38
-0.39375371 0.32517838 0.033182174 -1.7014636e+38
-0.39349422 0.3277182 0.0319006 -1.7014636e+38
-0.3936626 0.32845503 0.030191258 -1.7014636e+38
-0.39356717 0.33182609 0.027123228 -1.7014636e+38
-0.39327481 0.33462381 0.025747404 -1.7014636e+38
-0.39302966 0.33715963 0.024391264 -1.7014636e+38
-0.39337301 0.33857885 0.020994246 -1.7014636e+38
-0.39337701 0.3407315 0.018678665 -1.7014636e+38
-0.39359033 0.33874547 0.019623727 -1.7014636e+38
-0.393902 0.33557504 0.021290764 -1.7014636e+38
-0.3947466 0.32932246 0.023316026 -1.7014636e+38
-0.39524642 0.32672539 0.023339376 -1.7014636e+38
-0.39668187 0.32175657 0.02075319 -1.7014636e+38
-0.39740404 0.31919482 0.019518048 -1.7014636e+38
-0.3981685 0.3160395 0.018683285 -1.7014636e+38
-0.39868683 0.31310618 0.018963367 -1.7014636e+38
-0.39919707 0.31023926 0.01921685 -1.7014636e+38
-0.3997072 0.30738485 0.019457698 -1.7014636e+38
-0.40095493 0.30164051 0.01872839 -1.7014636e+38
-0.40144905 0.29896551 0.018865973 -1.7014636e+38
-0.4019604 0.29601526 0.019202098 -1.7014636e+38
-0.40245983 0.2932156 0.019443348 -1.7014636e+38
-0.40294731 0.29058668 0.019568384 -1.7014636e+38
-0.40367413 0.28776678 0.018582791 -1.7014636e+38
-0.40418351 0.28488374 0.018858358 -1.7014636e+38
-0.40469179 0.28190979 0.01923655 -1.7014636e+38
-0.40519318 0.27888361 0.019708335 -1.7014636e+38
-0.40639633 0.27353734 0.018799812 -1.7014636e+38
-0.40689534 0.27069387 0.019090027 -1.7014636e+38
-0.40762359 0.2677651 0.018212572 -1.7014636e+38
-0.40858626 0.26239452 0.018649906 -1.7014636e+38
-0.40976855 0.2570802 0.017821774 -1.7014636e+38
-0.4102658 0.25420845 0.018151879 -1.7014636e+38
-0.41050601 0.25153899 0.01967743 -1.7014636e+38
-0.41149333 0.24574032 0.020435512 -1.7014636e+38
-0.41218507 0.24314353 0.019404963 -1.7014636e+38
-0.41263962 0.24073489 0.019475877 -1.7014636e+38
-0.41403753 0.23531733 0.017574027 -1.7014636e+38
-0.41447681 0.23292044 0.017716378 -1.7014636e+38
-0.4149493 0.23032248 0.017890602 -1.7014636e+38
-0.41567591 0.22716889 0.017261699 -1.7014636e+38
-0.4161264 0.22474118 0.01737535 -1.7014636e+38
-0.41659269 0.22213185 0.017595619 -1.7014636e+38
-0.41704339 0.2196193 0.017798528 -1.7014636e+38
-0.41775906 0.21652953 0.017161667 -1.7014636e+38
-0.41820985 0.21408445 0.017292202 -1.7014636e+38
-0.41865575 0.2116401 0.017448694 -1.7014636e+38
-0.41910338 0.20925549 0.01753211 -1.7014636e+38
-0.41954535 0.20678985 0.017732933 -1.7014636e+38
-0.42024359 0.20387533 0.017005071 -1.7014636e+38
-0.42069045 0.20141324 0.017175213 -1.7014636e+38
-0.42113668 0.19889919 0.017404109 -1.7014636e+38
-0.42183259 0.19597904 0.016695172 -1.7014636e+38
-0.42227271 0.1935222 0.016896755 -1.7014636e+38
-0.42272115 0.1909934 0.017129362 -1.7014636e+38
-0.42363527 0.1857297 0.017719269 -1.7014636e+38
-0.42404088 0.18355913 0.017805368 -1.7014636e+38
-0.42448154 0.18115112 0.01795198 -1.7014636e+38
-0.42515507 0.17843612 0.017147213 -1.7014636e+38
-0.42584583 0.17541569 0.016573295 -1.7014636e+38
-0.42712852 0.1683324 0.017078668 -1.7014636e+38
-0.42759562 0.16561417 0.01741077 -1.7014636e+38
-0.42801946 0.16311985 0.017741412 -1.7014636e+38
-0.42840874 0.16109228 0.017764807 -1.7014636e+38
-0.42950469 0.15609083 0.017077342 -1.7014636e+38
-0.43018177 0.15311815 0.016527519 -1.7014636e+38
-0.43145967 0.14608184 0.017009169 -1.7014636e+38
-0.4318656 0.14371471 0.017302975 -1.7014636e+38
-0.43228555 0.14127234 0.017599761 -1.7014636e+38
-0.43272671 0.13869081 0.017928511 -1.7014636e+38
-0.43312836 0.13643011 0.01813224 -1.7014636e+38
-0.43374395 0.13194537 0.019531146 -1.7014636e+38
-0.43459165 0.12631571 0.020875841 -1.7014636e+38
-0.43535835 0.12314972 0.020040095 -1.7014636e+38
-0.43650192 0.11917241 0.017999902 -1.7014636e+38
-0.43689248 0.11717293 0.017986223 -1.7014636e+38
-0.43754485 0.11436198 0.017399892 -1.7014636e+38
-0.43794516 0.1121362 0.017573863 -1.7014636e+38
-0.43899062 0.10716541 0.017130747 -1.7014636e+38
-0.43937773 0.10512534 0.01717937 -1.7014636e+38
-0.43977007 0.10301937 0.017269358 -1.7014636e+38
-0.4401713 0.10072952 0.01750645 -1.7014636e+38
-0.44057664 0.09846089 0.017698348 -1.7014636e+38
-0.44120243 0.095867485 0.017026246 -1.7014636e+38
-0.44159752 0.09359739 0.017276034 -1.7014636e+38
-0.44198233 0.091448203 0.017453492 -1.7014636e+38
-0.44237173 0.089244857 0.017663315 -1.7014636e+38
-0.44339961 0.084327877 0.017259419 -1.7014636e+38
-0.44378427 0.082242467 0.017369717 -1.7014636e+38
-0.44441929 0.079456106 0.016852349 -1.7014636e+38
-0.44516811 0.075326294 0.017141789 -1.7014636e+38
-0.4455871 0.072910309 0.017415926 -1.7014636e+38
-0.44595015 0.070798367 0.01767303 -1.7014636e+38
-0.44693217 0.066301115 0.01707375 -1.7014636e+38
-0.44731635 0.064261742 0.017137513 -1.7014636e+38
-0.44710907 0.064340033 0.018191963 -1.7014636e+38
-0.4466553 0.064530045 0.020480663 -1.7014636e+38
-0.44623822 0.06437327 0.022937357 -1.7014636e+38
-0.44602481 0.064311489 0.024174809 -1.7014636e+38
-0.44581196 0.064300284 0.02535519 -1.7014636e+38
-0.44559208 0.064324491 0.026536494 -1.7014636e+38
-0.4451887 0.064104885 0.028984979 -1.7014636e+38
-0.44496292 0.064173251 0.030151665 -1.7014636e+38
-0.44455236 0.064076379 0.032508582 -1.7014636e+38
-0.44412684 0.064007849 0.034917682 -1.7014636e+38
-0.44391769 0.063997731 0.036076665 -1.7014636e+38
-0.44348788 0.064065337 0.038364172 -1.7014636e+38
-0.443055 0.064022288 0.040786415 -1.7014636e+38
-0.44238585 0.061990574 0.046624631 -1.7014636e+38
-0.44158208 0.063930526 0.048970222 -1.7014636e+38
-0.43992588 0.0636921 0.058316454 -1.7014636e+38
-0.43951371 0.063627087 0.060648404 -1.7014636e+38
-0.43909869 0.063576713 0.062980399 -1.7014636e+38
-0.43889239 0.063565843 0.064124525 -1.7014636e+38
-0.43848118 0.063547671 0.066401348 -1.7014636e+38
-0.43807495 0.06337928 0.068810925 -1.7014636e+38
-0.4376274 0.061454535 0.073318504 -1.7014636e+38
-0.43721154 0.061538383 0.075512186 -1.7014636e+38
-0.43603137 0.063115217 0.080311015 -1.7014636e+38
-0.43583158 0.063102469 0.081421375 -1.7014636e+38
-0.43541569 0.063221529 0.083577558 -1.7014636e+38
-0.4352119 0.06320589 0.084713027 -1.7014636e+38
-0.43481338 0.063039787 0.087077782 -1.7014636e+38
-0.43441993 0.063064702 0.08921124 -1.7014636e+38
-0.43379322 0.060955182 0.094899416 -1.7014636e+38
-0.43359679 0.060902156 0.096034244 -1.7014636e+38
-0.43300682 0.06066443 0.099526227 -1.7014636e+38
-0.43259317 0.060688801 0.10177124 -1.7014636e+38
-0.43239093 0.060728282 0.10283929 -1.7014636e+38
-0.43200514 0.060606346 0.10508712 -1.7014636e+38
-0.43161052 0.060488835 0.10737862 -1.7014636e+38
-0.43121144 0.060453415 0.10960734 -1.7014636e+38
-0.43081576 0.06042742 0.1118072 -1.7014636e+38
-0.43062156 0.060382217 0.11292137 -1.7014636e+38
-0.43022728 0.060312927 0.11515975 -1.7014636e+38
-0.43003026 0.060321644 0.11623218 -1.7014636e+38
-0.42983007 0.060311019 0.1173424 -1.7014636e+38
-0.42943907 0.060188159 0.11961991 -1.7014636e+38
-0.42904979 0.06011378 0.12183619 -1.7014636e+38
-0.42885625 0.060051918 0.12296444 -1.7014636e+38
-0.4276863 0.059808642 0.12964639 -1.7014636e+38
-0.42730504 0.059753545 0.13179824 -1.7014636e+38
-0.4261384 0.06152676 0.13631353 -1.7014636e+38
-0.42556062 0.059501119 0.14164361 -1.7014636e+38
-0.4251793 0.05940865 0.14383546 -1.7014636e+38
-0.42403996 0.05905275 0.15046939 -1.7014636e+38
-0.42385229 0.059000105 0.15155575 -1.7014636e+38
-0.42347735 0.05886019 0.15376325 -1.7014636e+38
-0.42308769 0.058918208 0.15584047 -1.7014636e+38
-0.42288673 0.058931969 0.15692911 -1.7014636e+38
-0.42252284 0.058785036 0.15908334 -1.7014636e+38
-0.42214075 0.058749922 0.16121826 -1.7014636e+38
-0.42177173 0.058581591 0.16342339 -1.7014636e+38
-0.42139739 0.05846785 0.16559967 -1.7014636e+38
-0.4210293 0.058278218 0.16782239 -1.7014636e+38
-0.42064035 0.058340102 0.16989183 -1.7014636e+38
-0.42045698 0.058303475 0.17093746 -1.7014636e+38
-0.42007354 0.058226228 0.1731247 -1.7014636e+38
-0.41971305 0.058125779 0.17521079 -1.7014636e+38
-0.41933858 0.058043234 0.17735437 -1.7014636e+38
-0.41896048 0.058058321 0.17941409 -1.7014636e+38
-0.4178395 0.057851039 0.1857889 -1.7014636e+38
-0.41748357 0.057627313 0.18798126 -1.7014636e+38
-0.41584796 0.05716601 0.19745183 -1.7014636e+38
-0.4154802 0.057116993 0.1995229 -1.7014636e+38
-0.41419148 0.05863069 0.20498487 -1.7014636e+38
-0.41365579 0.056804404 0.20987156 -1.7014636e+38
-0.41329151 0.056740515 0.2119395 -1.7014636e+38
-0.41310486 0.056706056 0.21300082 -1.7014636e+38
-0.4127284 0.056685813 0.21508907 -1.7014636e+38
-0.41237849 0.056583136 0.21711949 -1.7014636e+38
-0.41202629 0.056447804 0.21919715 -1.7014636e+38
-0.4116618 0.056441613 0.22120458 -1.7014636e+38
-0.41130647 0.05630374 0.22330222 -1.7014636e+38
-0.41095552 0.056162491 0.22537932 -1.7014636e+38
-0.41058442 0.056143552 0.22743675 -1.7014636e+38
-0.40988651 0.055828884 0.23160335 -1.7014636e+38
-0.4095301 0.055721357 0.23367465 -1.7014636e+38
-0.40918738 0.055643037 0.23563948 -1.7014636e+38
-0.40775955 0.055408761 0.24372759 -1.7014636e+38
-0.40741262 0.055293307 0.24575517 -1.7014636e+38
-0.40706873 0.055126145 0.24782103 -1.7014636e+38
-0.40567607 0.054759189 0.25585741 -1.7014636e+38
-0.40534395 0.054570839 0.2578814 -1.7014636e+38
-0.4046562 0.054413259 0.26182491 -1.7014636e+38
-0.40430683 0.054417074 0.26373887 -1.7014636e+38
-0.40394729 0.05441229 0.26571769 -1.7014636e+38
-0.4036113 0.054221444 0.26776543 -1.7014636e+38
-0.4029187 0.054082692 0.27171558 -1.7014636e+38
-0.40256959 0.054078735 0.27363628 -1.7014636e+38
-0.40155751 0.053683594 0.27961349 -1.7014636e+38
-0.40055105 0.05478093 0.2839694 -1.7014636e+38
-0.40019268 0.054730609 0.28599045 -1.7014636e+38
-0.39986137 0.054572403 0.28797781 -1.7014636e+38
-0.39953077 0.054402858 0.28997335 -1.7014636e+38
-0.39919898 0.054278418 0.29192734 -1.7014636e+38
-0.3988657 0.05418358 0.29385802 -1.7014636e+38
-0.39853755 0.054024562 0.295829 -1.7014636e+38
-0.39819974 0.054020748 0.29768747 -1.7014636e+38
-0.39788258 0.05374442 0.29972315 -1.7014636e+38
-0.39753625 0.053694226 0.30167788 -1.7014636e+38
-0.39634231 0.055012368 0.30682778 -1.7014636e+38
-0.39587218 0.053286269 0.31124783 -1.7014636e+38
-0.39553598 0.053179078 0.31320775 -1.7014636e+38
-0.39452755 0.054462589 0.31737608 -1.7014636e+38
-0.39420894 0.054300457 0.31929803 -1.7014636e+38
-0.3937161 0.052773878 0.32363021 -1.7014636e+38
-0.39340436 0.052601933 0.32552469 -1.7014636e+38
-0.39307329 0.052499741 0.32745102 -1.7014636e+38
-0.39274326 0.052392334 0.32937738 -1.7014636e+38
-0.39242175 0.052331313 0.33120736 -1.7014636e+38
-0.39208651 0.052333593 0.33304527 -1.7014636e+38
-0.39192161 0.052304685 0.33398134 -1.7014636e+38
-0.39161184 0.052076414 0.3359251 -1.7014636e+38
-0.39126888 0.052084059 0.33779973 -1.7014636e+38
-0.39095309 0.05196552 0.33965963 -1.7014636e+38
-0.39018074 0.052671537 0.34314752 -1.7014636e+38
-0.38967329 0.051539071 0.34713981 -1.7014636e+38
-0.38870877 0.052444533 0.35147002 -1.7014636e+38
-0.38837731 0.05243329 0.3533017 -1.7014636e+38
0.31293693 0.28496659 0.018436939 nan
0.31529897 0.28377432 0.014328793 nan
0.31180319 0.28411758 0.015403643 nan
0.30950895 0.28414282 0.015404537 nan
0.3072412 0.28415865 0.015373312 nan
0.30394113 0.2844539 0.016286619 nan
0.29698801 0.28425971 0.015336208 nan
0.29588526 0.28425756 0.015286312 nan
0.29366565 0.28426006 0.015210047 nan
0.29135627 0.28429729 0.015252598 nan
0.28909203 0.28431684 0.015234649 nan
0.28455088 0.28434855 0.015172258 nan
0.28342909 0.28436098 0.015172988 nan
0.28115812 0.28439015 0.015188746 nan
0.28003275 0.28440589 0.015201025 nan
0.27790841 0.28442326 0.0151807 nan
0.27543095 0.28446099 0.015218608 nan
0.26983288 0.28448242 0.015079558 nan
0.26736131 0.28455767 0.015249737 nan
0.26516598 0.28457692 0.015233397 nan
0.2628718 0.28494129 0.016428642 nan
0.25167042 0.2853232 0.017344229 nan
0.24962386 0.28526926 0.01707574 nan
0.24152133 0.28540662 0.017248847 nan
0.23920721 0.2854442 0.017292522 nan
0.23710734 0.28545678 0.017256349 nan
0.23594388 0.28543034 0.017118588 nan
0.2314823 0.28549841 0.01718726 nan
0.22924151 0.28550607 0.017128371 nan
0.22689103 0.28556383 0.017241649 nan
0.22024781 0.28505623 0.01519943 nan
0.2178582 0.28509915 0.015258886 nan
0.20994434 0.28543571 0.016140752 nan
0.20910773 0.28539658 0.015970863 nan
0.20646739 0.28518751 0.015133485 nan
0.20219469 0.28544596 0.015879825 nan
0.20103309 0.28547335 0.015931748 nan
0.19986674 0.28549039 0.015947014 nan
0.19544695 0.28552109 0.015885733 nan
0.19193487 0.28530502 0.014990188 nan
0.1876933 0.28561178 0.015907884 nan
0.18534155 0.28563884 0.015912972 nan
0.1830391 0.28568456 0.01598575 nan
0.18091998 0.28567356 0.015865795 nan
0.17983323 0.28564936 0.015738875 nan
0.17749235 0.28541878 0.014837116 nan
0.17520736 0.28612649 0.01724185 nan
0.16628321 0.28622308 0.017239854 nan
0.16520767 0.28619185 0.017088674 nan
0.1607704 0.28591082 0.015928842 nan
0.15971962 0.28591251 0.015894525 nan
0.15857586 0.28593877 0.015943222 nan
0.15751401 0.28593093 0.015874833 nan
0.15520808 0.28596634 0.015911154 nan
0.15302069 0.28598723 0.01590085 nan
0.15187053 0.28600159 0.015907362 nan
0.14518717 0.28606796 0.015884921 nan
0.14295448 0.28609052 0.015878715 nan
0.14186999 0.2861113 0.015910298 nan
0.13964054 0.28612009 0.015855812 nan
0.13732341 0.28589499 0.014974251 nan
0.13505384 0.28592858 0.015005596 nan
0.13182804 0.28620389 0.015851453 nan
0.13066998 0.28622535 0.015882596 nan
0.12954816 0.28625178 0.015932746 nan
0.1250159 0.28603232 0.014986143 nan
0.12391365 0.28605175 0.015012302 nan
0.12173078 0.28607297 0.015003346 nan
0.11954759 0.28633896 0.015856326 nan
0.11618906 0.28639579 0.015927717 nan
0.11506993 0.28641161 0.015940562 nan
0.11167979 0.28618217 0.015002578 nan
0.10728198 0.28648317 0.015894055 nan
0.10506144 0.28652447 0.015954383 nan
0.10392395 0.28655091 0.016003795 nan
0.10171941 0.28655982 0.015950717 nan
0.099493451 0.28658488 0.015953586 nan
0.097285077 0.28661436 0.015972778 nan
0.095060721 0.28664362 0.015990578 nan
0.093875296 0.28667003 0.016038097 nan
0.091732457 0.28668442 0.016006656 nan
0.083941378 0.28676078 0.015976876 nan
0.079510182 0.2873714 0.017957367 nan
0.077279583 0.2873925 0.017946176 nan
0.075053141 0.28741211 0.017929859 nan
0.073984593 0.28742155 0.017922252 nan
0.069515973 0.28720498 0.016988225 nan
0.065066598 0.28697562 0.016009934 nan
0.063940346 0.28698847 0.01601202 nan
0.059555665 0.28757799 0.017919905 nan
0.057305697 0.28760916 0.017943472 nan
0.052900955 0.28736544 0.016916357 nan
0.051755272 0.28740647 0.01701691 nan
0.047318786 0.28718117 0.016053401 nan
0.042927533 0.28717384 0.015859231 nan
0.04180675 0.28719246 0.015881829 nan
0.039560504 0.28753966 0.017018415 nan
0.035165124 0.28757361 0.016969502 nan
0.032920808 0.28762057 0.017048888 nan
0.027391456 0.28766456 0.016991787 nan
0.024092279 0.28796822 0.01793474 nan
0.022983678 0.28798455 0.017949782 nan
0.019671448 0.28773659 0.016949497 nan
0.015234113 0.28778648 0.016955152 nan
0.01301486 0.28781298 0.016963363 nan
0.0096159205 0.28754246 0.015880354 nan
0.0052120835 0.28756261 0.01578255 nan
-0.00696183 0.28805503 0.017049961 nan
-0.0080441162 0.28806996 0.017061129 nan
-0.011301383 0.28811511 0.017095193 nan
-0.014712863 0.28780311 0.015865721 nan
-0.016921185 0.28782994 0.015875429 nan
-0.020210765 0.28815854 0.016906627 nan
-0.021252923 0.28816772 0.016898915 nan
-0.022404633 0.28823298 0.017084688 nan
-0.025561146 0.28827116 0.017098084 nan
-0.026886843 0.28826559 0.017027691 nan
-0.028060712 0.28831378 0.017152376 nan
-0.037964426 0.288389 0.0170376 nan
-0.038983889 0.28843933 0.017175764 nan
-0.044456117 0.28910449 0.0193085 nan
-0.045654036 0.28911754 0.019308493 nan
-0.051151343 0.28872836 0.017727174 nan
-0.052355193 0.28872877 0.01768247 nan
-0.055686392 0.28893465 0.018279798 nan
-0.063335083 0.28866965 0.017053373 nan
-0.07000991 0.28941679 0.0194287 nan
-0.077786811 0.28948614 0.019374743 nan
-0.084362976 0.28893855 0.017194241 nan
-0.085500233 0.28892407 0.017099649 nan
-0.086672582 0.28895596 0.017166987 nan
-0.087705754 0.28896242 0.017150126 nan
-0.08993464 0.28899294 0.017172225 nan
-0.091043346 0.28899258 0.017128453 nan
-0.095561676 0.28878209 0.016213901 nan
-0.098890178 0.28882268 0.016229227 nan
-0.10112769 0.28882587 0.016154774 nan
-0.10771642 0.28890657 0.016186349 nan
-0.11102488 0.28924236 0.017241992 nan
-0.11554473 0.28900671 0.016238853 nan
-0.11784416 0.28905812 0.016331747 nan
-0.11998341 0.28906572 0.016276583 nan
-0.123314 0.28910381 0.016283043 nan
-0.12777388 0.28944641 0.017318539 nan
-0.12995678 0.28945327 0.017258979 nan
-0.13111454 0.28948319 0.01732 nan
-0.13332129 0.28950971 0.017328843 nan
-0.13550875 0.28952402 0.017295353 nan
-0.13779479 0.28957626 0.017391659 nan
-0.13890547 0.28957537 0.017345943 nan
-0.14114556 0.28959405 0.017325848 nan
-0.14330852 0.28961861 0.017329514 nan
-0.14561439 0.28965613 0.017373204 nan
-0.14783782 0.28967172 0.017342903 nan
-0.14894095 0.28968084 0.017332636 nan
-0.15114787 0.28970164 0.017321378 nan
-0.15328917 0.28972852 0.017333895 nan
-0.15553257 0.28974852 0.017318308 nan
-0.15778422 0.28980476 0.017430075 nan
-0.16120949 0.28983989 0.017422467 nan
-0.16344768 0.28987429 0.017457843 nan
-0.16567072 0.28989854 0.017457977 nan
-0.16790694 0.28992492 0.017465174 nan
-0.16898227 0.28994438 0.017492533 nan
-0.17344359 0.2900126 0.017561749 nan
-0.17791823 0.29065013 0.019635335 nan
-0.1789954 0.29067102 0.019667611 nan
-0.18577927 0.2901476 0.017564215 nan
-0.1879769 0.29014754 0.017479852 nan
-0.18916902 0.29017773 0.017540395 nan
-0.19131139 0.29018673 0.017490029 nan
-0.1934765 0.29082808 0.019665554 nan
-0.1934627 0.29113308 0.020740211 nan
-0.19337726 0.29177102 0.022990093 nan
-0.19326013 0.29239717 0.025199659 nan
-0.19315827 0.29302442 0.027412564 nan
-0.19195321 0.29393134 0.030652635 nan
-0.19071203 0.29514235 0.034964986 nan
-0.18940929 0.29637814 0.039366961 nan
-0.18819174 0.29726905 0.042551108 nan
-0.18782541 0.29912481 0.049100503 nan
-0.18799755 0.29938737 0.050018549 nan
-0.18810421 0.29957932 0.050690405 nan
-0.18667704 0.30003545 0.052351519 nan
-0.18583465 0.30061835 0.054436535 nan
-0.18642202 0.30185068 0.058753893 nan
-0.18539959 0.30216429 0.059897497 nan
-0.18418154 0.30308303 0.063179679 nan
-0.18410894 0.30369285 0.065329999 nan
-0.18407223 0.30429927 0.067467012 nan
-0.18400192 0.30459809 0.068522088 nan
-0.18392876 0.30490926 0.069620728 nan
-0.18276754 0.30582705 0.072897457 nan
-0.18267396 0.30640966 0.074952692 nan
-0.1824286 0.30757421 0.079063356 nan
-0.18236652 0.30779427 0.07984063 nan
-0.18219036 0.30819318 0.081252217 nan
-0.18129724 0.30881628 0.08348085 nan
-0.1800324 0.30976009 0.086853057 nan
-0.17899486 0.31060791 0.089878581 nan
-0.17890051 0.31092623 0.091003269 nan
-0.17773727 0.31214708 0.0953473 nan
-0.17740068 0.31358531 0.10042506 nan
-0.17726931 0.31383759 0.10131857 nan
-0.17604241 0.31517032 0.10605906 nan
-0.17483005 0.3168444 0.11200107 nan
-0.17353821 0.3181639 0.11669739 nan
-0.17226928 0.3199563 0.12305825 nan
-0.17235011 0.32012933 0.12366457 nan
-0.17015678 0.32114017 0.1273085 nan
-0.16892076 0.32233036 0.13154726 nan
-0.16887933 0.32260075 0.13250111 nan
-0.16847092 0.32416502 0.13802555 nan
-0.16720387 0.32567063 0.14337641 nan
-0.16630322 0.32591188 0.1442605 nan
-0.16505072 0.32762253 0.15033287 nan
-0.16489983 0.32802382 0.15175188 nan
-0.1628367 0.32917592 0.15588826 nan
-0.16161636 0.33031484 0.15994595 nan
-0.16056949 0.33145857 0.16401391 nan
-0.15930155 0.33269292 0.16840944 nan
-0.15939102 0.33297658 0.16940503 nan
-0.15815228 0.33352619 0.17138807 nan
-0.15556872 0.33531493 0.17778642 nan
-0.15577805 0.33566308 0.1790044 nan
-0.15446705 0.3370719 0.18401605 nan
-0.15445191 0.3373782 0.18509533 nan
-0.1544247 0.33768791 0.18618704 nan
-0.15442568 0.33798543 0.18723476 nan
-0.15423068 0.33860531 0.18942529 nan
-0.15414482 0.3391805 0.19145425 nan
-0.15401223 0.33977681 0.19355926 nan
-0.15312266 0.34004229 0.19452833 nan
-0.15077841 0.34121841 0.19876009 nan
-0.15060794 0.34243 0.20303337 nan
-0.15056115 0.34303617 0.20516993 nan
-0.14935693 0.34471893 0.21114221 nan
-0.14916012 0.34507984 0.21242073 nan
-0.14812043 0.34595501 0.2155427 nan
-0.14701188 0.34682116 0.21863544 nan
-0.14696676 0.34742549 0.22076541 nan
-0.14689997 0.34802267 0.22287102 nan
-0.14575371 0.34918091 0.22699392 nan
-0.14460674 0.35033906 0.23111644 nan
-0.14453217 0.35093659 0.23322371 nan
-0.14344645 0.35149458 0.23523031 nan
-0.14231128 0.35265595 0.23936377 nan
-0.14227605 0.35295185 0.2404072 nan
-0.14121342 0.35292861 0.24036613 nan
-0.13906854 0.35289982 0.24034694 nan
-0.13694498 0.35286197 0.2402951 nan
-0.13584 0.35284781 0.2402876 nan
-0.13367528 0.35281861 0.24026775 nan
-0.1315237 0.35279152 0.24025476 nan
-0.12936732 0.35276812 0.24025506 nan
-0.12724239 0.35275072 0.24027519 nan
-0.12506232 0.35269406 0.24015933 nan
-0.12400249 0.35268337 0.24016228 nan
-0.12182107 0.35264894 0.24012467 nan
-0.11964748 0.35262826 0.2401351 nan
-0.1175053 0.35259861 0.24011289 nan
-0.11537174 0.35258099 0.24013256 nan
-0.11318327 0.35254487 0.2400893 nan
-0.11104267 0.35250965 0.24004731 nan
-0.10996527 0.3524915 0.24002466 nan
-0.10781807 0.35248271 0.24007601 nan
-0.10563182 0.35244811 0.24003798 nan
-0.10348269 0.35242301 0.24003194 nan
-0.10134333 0.35239661 0.24002105 nan
-0.099173225 0.35235646 0.23996285 nan
-0.097025506 0.35234031 0.23998833 nan
-0.095940359 0.35232764 0.23998532 nan
-0.093781285 0.35229531 0.2399542 nan
-0.091629662 0.35226682 0.23993632 nan
-0.089497887 0.3522467 0.23994723 nan
-0.087374307 0.35224128 0.24000947 nan
-0.085224114 0.35221151 0.23998709 nan
-0.08304166 0.35217133 0.23992932 nan
-0.081980459 0.35217988 0.24000007 nan
-0.080927096 0.35216272 0.23998004 nan
-0.07979352 0.3521336 0.23992096 nan
-0.077679031 0.35212272 0.23996362 nan
-0.075535752 0.35209584 0.23995119 nan
-0.073403321 0.35206276 0.23991644 nan
-0.071263365 0.35203433 0.23989834 nan
-0.069090076 0.35201061 0.23989809 nan
-0.068010785 0.3519991 0.23989902 nan
-0.066923432 0.35198909 0.23990542 nan
-0.065855928 0.35197386 0.23989271 nan
-0.063716434 0.35194305 0.23986617 nan
-0.061563827 0.35191539 0.23985127 nan
-0.059414275 0.35188842 0.23983869 nan
-0.058333464 0.3518782 0.23984411 nan
-0.057260968 0.35186589 0.23984191 nan
-0.055114485 0.35183975 0.23983212 nan
-0.052960701 0.3518101 0.23981026 nan
-0.05190327 0.35180002 0.23981538 nan
-0.050821908 0.35178325 0.23979776 nan
-0.049742155 0.35176969 0.23979136 nan
-0.047599189 0.35174376 0.23978223 nan
-0.046516754 0.35172063 0.23974222 nan
-0.045425303 0.35170883 0.23974249 nan
-0.043287225 0.35168853 0.23975301 nan
-0.041146301 0.35166559 0.2397543 nan
-0.038996957 0.35164472 0.23976324 nan
-0.037897833 0.35162878 0.23974916 nan
-0.035771348 0.35160393 0.23974323 nan
-0.033619918 0.35157263 0.2397155 nan
-0.031434201 0.35152307 0.23962474 nan
-0.029341973 0.35152057 0.23969612 nan
-0.027182542 0.35148984 0.23967069 nan
-0.025041603 0.35147023 0.23968375 nan
-0.023956157 0.35146216 0.23969683 nan
-0.020727463 0.35142517 0.23969039 nan
-0.018583037 0.35139295 0.23965913 nan
-0.017520942 0.35137516 0.23963723 nan
-0.015360855 0.3513509 0.23963456 nan
-0.013173692 0.3513096 0.23957291 nan
-0.011060856 0.35131162 0.2396611 nan
-0.0089250728 0.35127854 0.23962651 nan
-0.0078329816 0.35127494 0.23965561 nan
-0.0046241954 0.35123134 0.23962504 nan
-0.0035484582 0.35121864 0.23962161 nan
-0.0013944805 0.35119575 0.23962362 nan
0.0018542781 0.35116592 0.23964307 nan
0.0039770082 0.35113564 0.23961779 nan
0.0050504506 0.35112327 0.23961543 nan
0.0061380193 0.35111418 0.23962511 nan
0.0093338341 0.35108018 0.23962791 nan
0.01150582 0.35104832 0.2395989 nan
0.012595274 0.35103187 0.23958276 nan
0.015778512 0.35101491 0.23964505 nan
0.017928191 0.35098165 0.23961034 nan
0.018999405 0.35096762 0.23960197 nan
0.020070836 0.35095987 0.23961575 nan
0.022222228 0.35093829 0.23962224 nan
0.024372019 0.35091704 0.23962983 nan
0.027602665 0.35088101 0.2396268 nan
0.029773623 0.3508527 0.2396103 nan
0.031907089 0.35082704 0.23960176 nan
0.032978415 0.35081625 0.23960477 nan
0.034048788 0.35080409 0.23960298 nan
0.03725709 0.35078084 0.23964421 nan
0.039421454 0.35075405 0.23963277 nan
0.041565843 0.35073316 0.23964143 nan
0.043709181 0.3507098 0.23964134 nan
0.045859359 0.35068136 0.23962364 nan
0.04694172 0.35067663 0.23964836 nan
0.049091406 0.35065302 0.23964772 nan
0.051238172 0.35063249 0.2396577 nan
0.053394318 0.35060912 0.23965803 nan
0.055560175 0.35058209 0.2396459 nan
0.057693705 0.35056221 0.23965763 nan
0.059860602 0.35053802 0.23965555 nan
0.061993834 0.35051692 0.23966295 nan
0.063080236 0.35050824 0.23967406 nan
0.065201297 0.35048625 0.23967791 nan
0.067381039 0.35046232 0.23967722 nan
0.06952706 0.35043979 0.23968014 nan
0.071685068 0.35042056 0.23969516 nan
0.073833048 0.35039774 0.23969713 nan
0.075968295 0.35037997 0.23971641 nan
0.077038281 0.35037044 0.23972389 nan
0.079213738 0.3503491 0.23973215 nan
0.081372142 0.35032165 0.2397182 nan
0.083536237 0.350308 0.23975314 nan
0.085681401 0.35028496 0.2397542 nan
0.087817416 0.35026875 0.23977897 nan
0.089966938 0.35024577 0.23978047 nan
0.091058597 0.35023153 0.23977219 nan
0.093212828 0.35021156 0.23978436 nan
0.095361829 0.35018769 0.23978275 nan
0.097544238 0.35016635 0.23979127 nan
0.099689916 0.35015258 0.23982507 nan
0.10183475 0.35013217 0.23983531 nan
0.10399181 0.3501111 0.23984388 nan
0.1050571 0.35010025 0.23984648 nan
0.10723659 0.35007706 0.23984838 nan
0.10937274 0.35006148 0.23987535 nan
0.11153314 0.35004112 0.23988649 nan
0.11368196 0.35001907 0.23989117 nan
0.11582633 0.35000339 0.2399182 nan
0.11799476 0.34998137 0.2399238 nan
0.11908656 0.3499673 0.23991615 nan
0.12125494 0.34994918 0.23993537 nan
0.12342287 0.34992689 0.23994005 nan
0.12555234 0.34991226 0.23997012 nan
0.12770191 0.34989765 0.24000107 nan
0.12987714 0.34987485 0.24000415 nan
0.1309423 0.34986216 0.24000034 nan
0.13314658 0.34983936 0.24000455 nan
0.13532943 0.34981173 0.23999098 nan
0.1374706 0.34980273 0.24004129 nan
0.13963196 0.34978166 0.24004997 nan
0.14177838 0.3497659 0.24007678 nan
0.14394963 0.34975129 0.24010849 nan
0.1450239 0.34974006 0.24011019 nan
0.14610584 0.3497287 0.24011165 nan
0.14717562 0.34972036 0.24012326 nan
0.14934212 0.34970182 0.24014106 nan
0.15148993 0.34968579 0.24016687 nan
0.1536511 0.34966511 0.24017689 nan
0.15476561 0.34964159 0.2401368 nan
0.15581517 0.34964392 0.24018529 nan
0.15690582 0.34963197 0.24018496 nan
0.1590755 0.3496224 0.24023449 nan
0.16017927 0.34961227 0.24024113 nan
0.16125616 0.34960181 0.24024555 nan
0.16233259 0.34959066 0.24024759 nan
0.16341595 0.34958643 0.24027413 nan
0.16559777 0.34955406 0.24024381 nan
0.16774575 0.34954697 0.24030119 nan
0.1699031 0.34953436 0.24033956 nan
0.17099388 0.34952435 0.24034609 nan
0.17315935 0.3495045 0.24035917 nan
0.17535955 0.34947369 0.24033505 nan
0.17748475 0.34947047 0.24040511 nan
0.17964847 0.34945214 0.2404235 nan
0.18182522 0.34943518 0.24044724 nan
0.18291193 0.34942254 0.24044442 nan
0.18512048 0.34938595 0.24040024 nan
0.18727541 0.34936878 0.24042232 nan
0.18946397 0.34934989 0.2404397 nan
0.1916014 0.34933418 0.2404663 nan
0.19377872 0.34932217 0.24050748 nan
0.19596756 0.34931409 0.24056295 nan
0.19708303 0.34929061 0.2405231 nan
0.19920284 0.34927303 0.24054238 nan
0.20137326 0.34925944 0.2405777 nan
0.20356652 0.34924018 0.24059397 nan
0.20574558 0.34924671 0.24070053 nan
0.20794098 0.34923303 0.24073654 nan
0.20902598 0.34922582 0.24075273 nan
0.21116966 0.34920716 0.24076915 nan
0.2133653 0.3491905 0.24079472 nan
0.21554685 0.34915578 0.24075605 nan
0.21770944 0.34915903 0.24085039 nan
0.21990359 0.34913969 0.24086645 nan
0.22101489 0.34913161 0.24088055 nan
0.22322577 0.34911019 0.24088988 nan
0.22539249 0.34909937 0.24093477 nan
0.22758663 0.34908444 0.24096631 nan
0.22974187 0.34907407 0.24101242 nan
0.23189157 0.34906244 0.24105392 nan
0.23300356 0.34905106 0.24105644 nan
0.2352512 0.34901243 0.24100664 nan
0.23739493 0.34899032 0.2410109 nan
0.23953795 0.3489818 0.2410631 nan
0.24170566 0.34896857 0.24109957 nan
0.24392533 0.34894496 0.24110153 nan
0.24503118 0.34893954 0.24112479 nan
0.24717525 0.34892514 0.24115635 nan
0.24938682 0.34890911 0.24118465 nan
0.25157717 0.34889266 0.24121067 nan
0.25372449 0.3488816 0.241254 nan
0.25591967 0.34886524 0.24128063 nan
0.25702268 0.34886596 0.24132535 nan
0.25923261 0.34884161 0.24132434 nan
0.26144218 0.34882671 0.24135657 nan
0.26361468 0.3488107 0.24138352 nan
0.26579854 0.3487983 0.24142358 nan
0.26798514 0.34878421 0.24145776 nan
0.26914108 0.34877798 0.24148014 nan
0.27132922 0.34877965 0.24156988 nan
0.27348045 0.34874365 0.24152553 nan
0.27567071 0.34873533 0.24158029 nan
0.27788383 0.3487258 0.24163152 nan
0.27896458 0.34871164 0.24162309 nan
0.28117514 0.34869453 0.2416476 nan
0.28337744 0.348685 0.24169841 nan
0.2855736 0.34866792 0.24172243 nan
0.28776911 0.34865725 0.24176905 nan
0.28997487 0.34864175 0.2417991 nan
0.29109561 0.34863442 0.24181616 nan
0.29328576 0.34862244 0.24185793 nan
0.295495 0.3486062 0.24188542 nan
0.29774559 0.34858775 0.24190676 nan
0.29995036 0.34857982 0.2419634 nan
0.30103761 0.34857649 0.24199326 nan
0.30331627 0.34857306 0.2420686 nan
0.30546737 0.34856835 0.24213442 nan
0.30769324 0.34854901 0.24215174 nan
0.30986857 0.34853816 0.24219692 nan
0.3109346 0.34853131 0.24221361 nan
0.31313279 0.3485167 0.24224648 nan
0.31532672 0.34848541 0.24222036 nan
0.31759238 0.34847862 0.24228325 nan
0.31978777 0.3484799 0.24237199 nan
0.32196781 0.3484455 0.24233441 nan
0.32306167 0.34843984 0.24235635 nan
0.32527223 0.34843224 0.24241436 nan
0.32747307 0.34841582 0.24244091 nan
0.32972825 0.34840217 0.24247925 nan
0.33193636 0.34838647 0.24250868 nan
0.33305031 0.34838545 0.24254781 nan
0.33523268 0.34837469 0.24259356 nan
0.33634025 0.34836474 0.24260099 nan
0.33741969 0.34836057 0.24262762 nan
0.33853409 0.34835675 0.24265695 nan
0.33964786 0.3483457 0.24266067 nan
0.34190148 0.34832728 0.24268217 nan
0.34303543 0.34832549 0.24271935 nan
0.34413981 0.34831649 0.24272998 nan
0.34522691 0.34831345 0.24276097 nan
0.34745553 0.34830236 0.24280734 nan
0.34968635 0.34828874 0.24284494 nan
0.35189056 0.34827781 0.24289092 nan
0.35299033 0.34827206 0.2429128 nan
0.35521251 0.34826481 0.24297252 nan
0.35744581 0.34824637 0.24299312 nan
0.35965213 0.34823886 0.24305134 nan
0.36185527 0.34822372 0.24308243 nan
0.36297199 0.3482165 0.2430999 nan
0.36520875 0.34820712 0.24315257 nan
0.36751077 0.34821349 0.24326321 nan
0.36971697 0.34818217 0.24323748 nan
0.3719413 0.34816167 0.24325055 nan
0.3730458 0.34816533 0.2433058 nan
0.37521318 0.34817317 0.24341652 nan
0.37739116 0.34814641 0.2434058 nan
0.37967014 0.3481358 0.24345578 nan
0.38188204 0.34812182 0.24349129 nan
0.38300598 0.34811804 0.24352106 nan
0.38521212 0.34810835 0.24357155 nan
0.3874397 0.34809566 0.24361226 nan
0.3896777 0.34808457 0.243659 nan
0.39195415 0.34806895 0.24369127 nan
0.39305899 0.3480674 0.24372816 nan
0.39513224 0.34806472 0.24379814 nan
0.39716306 0.34804964 0.24382296 nan
0.39969736 0.34801584 0.2438011 nan
0.40187871 0.34801537 0.24388301 nan
0.40309986 0.34801233 0.24391913 nan
0.4052664 0.34800833 0.24398811 nan
0.40748259 0.34799838 0.24403803 nan
0.40954223 0.34798917 0.24408457 nan
0.41156253 0.34797674 0.24411824 nan
0.4139612 0.34795848 0.24414589 nan
0.41507712 0.34795457 0.24417487 nan
0.4175142 0.34793553 0.24420123 nan
0.41969651 0.34794334 0.24431238 nan
0.42065439 0.34792659 0.24429008 nan
0.42175445 0.34792587 0.24432978 nan
0.42285293 0.34791577 0.24433631 nan
0.42505527 0.34789377 0.24434328 nan
0.42723343 0.34789026 0.24441439 nan
0.42939809 0.3478736 0.24443868 nan
0.43166456 0.3478629 0.24448796 nan
0.43387413 0.34785026 0.24452811 nan
0.43499833 0.34784654 0.24455811 nan
0.43715239 0.34784508 0.24463549 nan
0.43715787 0.34725055 0.242542 nan
0.43741351 0.34664154 0.24040717 nan
0.43651956 0.34575674 0.23725682 nan
0.43568322 0.34455949 0.23300853 nan
0.43573877 0.34426776 0.2319832 nan
0.43582445 0.34396207 0.23091005 nan
0.43597668 0.34335753 0.22878686 nan
0.43508473 0.34216952 0.2245689 nan
0.43919393 0.34065071 0.2193777 nan
0.43972573 0.3403106 0.21820037 nan
0.44023195 0.33971587 0.21612529 nan
0.43966421 0.33947209 0.21524501 nan
0.43928054 0.33792841 0.20979406 nan
0.43891695 0.33766702 0.20885956 nan
0.43814299 0.33677623 0.20569277 nan
0.43738708 0.3361246 0.20336902 nan
0.43714949 0.33466655 0.19822517 nan
0.43625081 0.33373323 0.19490384 nan
0.43530023 0.33226213 0.18968672 nan
0.43542683 0.3316772 0.18763159 nan
0.43475232 0.33103269 0.18533604 nan
0.43331143 0.32955298 0.18006976 nan
0.43343556 0.32924667 0.17899579 nan
0.43121874 0.32865438 0.17682496 nan
0.42551163 0.3269088 0.17045885 nan
0.42545819 0.32630745 0.16833904 nan
0.42993 0.32374197 0.15947574 nan
0.43180355 0.32346135 0.15855925 nan
0.43152595 0.32319352 0.15760547 nan
0.43047795 0.3226338 0.15559411 nan
0.43013299 0.32219923 0.15405042 nan
0.42901376 0.32164627 0.15206027 nan
0.42651555 0.3192783 0.14362532 nan
0.42653576 0.31867045 0.14148545 nan
0.42657354 0.31806925 0.13936962 nan
0.42575973 0.31685153 0.13504998 nan
0.4248907 0.3156473 0.13077581 nan
0.42502454 0.31473944 0.12758379 nan
0.42306179 0.31351972 0.12321305 nan
0.42317322 0.31290746 0.12106122 nan
0.42325929 0.31229669 0.11891355 nan
0.42324582 0.31141162 0.11579619 nan
0.42323002 0.31111777 0.11476072 nan
0.42113367 0.31078061 0.11349303 nan
0.41892013 0.3107824 0.11341442 nan
0.41791242 0.31079346 0.1134148 nan
0.41558841 0.31081003 0.11338404 nan
0.41324458 0.31083587 0.11338516 nan
0.40982616 0.31084549 0.11328802 nan
0.40512607 0.30996957 0.11002314 nan
0.39794365 0.31008518 0.11015485 nan
0.39383224 0.31035534 0.11094874 nan
0.39165071 0.31035307 0.11085707 nan
0.38938618 0.31035945 0.11079273 nan
0.3870365 0.31038287 0.11078517 nan
0.38132051 0.30953002 0.10756261 nan
0.37903172 0.30955875 0.10757597 nan
0.37351966 0.30838639 0.10323606 nan
0.36580536 0.30753168 0.099930383 nan
0.36257792 0.30688888 0.097542845 nan
0.36029094 0.30630293 0.095391721 nan
0.35733995 0.30572566 0.093245596 nan
0.35382012 0.30513212 0.091020375 nan
0.35185999 0.30478275 0.089714929 nan
0.34935373 0.30458766 0.088931777 nan
0.34610987 0.30365109 0.085509226 nan
0.34393522 0.30307329 0.083390988 nan
