# .PCD v0.7 - Point Cloud Data file format
VERSION 0.7
FIELDS x y z rgb
SIZE 4 4 4 4
TYPE F F F F
COUNT 1 1 1 1
WIDTH 1017
HEIGHT 1
VIEWPOINT 0 0 0 1 0 0 0
POINTS 1017
DATA ascii
0.34225908 0.65770721 0.21267222 -3.3826396e+38
0.34234777 0.65572178 0.21338102 -3.2496649e+38
0.34245044 0.63834661 0.21248004 -3.3424502e+38
0.34256387 0.62866569 0.21250202 -3.3426064e+38
0.34267771 0.618985 0.21254085 -3.342503e+38
0.34308395 0.61300248 0.21611613 -3.2629049e+38
0.34290043 0.61117733 0.2139537 -3.3159701e+38
0.34304494 0.60149652 0.21429695 -3.3028338e+38
0.34297067 0.59961075 0.21328042 -3.3825356e+38
0.34322354 0.59372723 0.21522763 -3.2895413e+38
0.34319323 0.58989936 0.21443343 -3.3426068e+38
0.34336367 0.58790141 0.21598831 -3.3692435e+38
0.34342262 0.58595806 0.21636334 -3.2893856e+38
0.34328663 0.58409333 0.21468899 -3.262957e+38
0.34344462 0.58018863 0.21586895 -3.3160225e+38
0.34319329 0.57836485 0.21298879 nan
0.34327561 0.57640868 0.21361145 -3.3958285e+38
0.34343624 0.57442635 0.21505222 -3.3028342e+38
0.34336349 0.57253069 0.21404281 -3.3163346e+38
0.3436009 0.56860125 0.21605475 nan
0.34363642 0.56666702 0.21618567 nan
0.3435972 0.56475985 0.21552333 -3.3293665e+38
0.34354255 0.56285572 0.21470384 -3.2896983e+38
0.34349209 0.56094939 0.21392055 -3.2495087e+38
0.3433812 0.55713773 0.21225606 nan
0.34355927 0.55516005 0.21388462 -3.3692435e+38
0.34354833 0.5532406 0.21352302 -3.2762491e+38
0.34365499 0.55128652 0.21439366 -3.303094e+38
0.34380102 0.54740083 0.21543387 nan
0.34383839 0.5454669 0.21557876 nan
0.34391451 0.54160321 0.21587162 -3.3029383e+38
0.34376156 0.53971559 0.2140085 -3.342867e+38
0.34376326 0.53586709 0.21352114 -3.3824317e+38
0.34382647 0.53393012 0.21392955 -3.3426591e+38
0.34366432 0.53203911 0.2119641 -3.3561603e+38
0.34386954 0.53007138 0.2138748 -3.1961317e+38
0.34386539 0.52622211 0.2133178 -3.329262e+38
0.3439824 0.5242787 0.21429108 -3.3825354e+38
0.34414387 0.52040225 0.21548404 -3.3830045e+38
0.3441698 0.51847357 0.21549295 -3.3961408e+38
0.34404904 0.51463866 0.21370088 -3.2891777e+38
0.34410393 0.51270765 0.21401706 -3.3561597e+38
0.3441577 0.50884992 0.21406285 -3.249718e+38
0.34420148 0.50691766 0.21426696 -3.2094767e+38
0.34449929 0.50303888 0.21684617 -3.18258e+38
0.34517545 0.50100034 0.22372712 -2.5151034e+38
0.34461242 0.49912825 0.21751206 -2.2217891e+38
0.34388629 0.49723819 0.20955612 -2.1017943e+38
0.34449062 0.49528885 0.21570016 -2.0217806e+38
0.34423092 0.49336693 0.21267815 -1.9684559e+38
0.34434241 0.49194181 0.21278721 -1.8351686e+38
0.34422347 0.48968709 0.20953296 -1.7817395e+38
0.34368348 0.48744398 0.20448525 -1.781687e+38
0.34414065 0.48567945 0.21075045 -2.2085491e+38
0.34450954 0.483753 0.21442379 -2.8491279e+38
0.34451714 0.48184714 0.21413651 -3.0358439e+38
0.34467372 0.47992179 0.21551879 -3.1960281e+38
0.34463325 0.47606593 0.21455048 -3.3564202e+38
0.34484968 0.47414294 0.21656756 nan
0.34478244 0.47221252 0.21558334 nan
0.34492084 0.47029114 0.21677293 nan
0.34482893 0.46835798 0.21553035 -3.316335e+38
0.34493601 0.46643731 0.21639003 -3.3965053e+38
0.34492618 0.46450731 0.21601264 nan
0.34501812 0.46065754 0.2164342 -3.3558991e+38
0.34500313 0.45872709 0.2160001 nan
0.34510744 0.45487881 0.21655166 -3.3427109e+38
0.34514922 0.44909412 0.21615623 -3.3158659e+38
0.3452512 0.44524825 0.21668312 -3.3561072e+38
0.34516758 0.44330472 0.21551399 -3.2895931e+38
0.34539619 0.43368548 0.21652232 nan
0.34554264 0.41051823 0.21463397 -3.369296e+38
0.34584379 0.39705348 0.21578965 -3.3026772e+38
0.34606373 0.39519024 0.21782568 -3.2493519e+38
0.34618643 0.39136061 0.21854387 -3.3024702e+38
0.34607172 0.38938397 0.21702571 -3.3026261e+38
0.34623453 0.38556987 0.21816362 -3.2895409e+38
0.34627777 0.38365036 0.21832281 -3.3028332e+38
0.34639549 0.37982243 0.21898025 -3.3824323e+38
0.34632921 0.37785676 0.21797721 -3.3957244e+38
0.34637049 0.37399787 0.21782146 nan
0.34658191 0.37021148 0.21946225 nan
0.34643811 0.36820722 0.21762609 nan
0.34654507 0.36437553 0.21816428 nan
0.34659162 0.36245731 0.21835417 -3.3827954e+38
0.34669861 0.36056834 0.21918839 -3.3428664e+38
0.34670997 0.35863245 0.21900508 -3.3828477e+38
0.3469311 0.35680178 0.22105876 nan
0.34671703 0.35281086 0.21816242 nan
0.346852 0.35093907 0.21929148 -3.3560547e+38
0.34681422 0.34897628 0.21858412 -3.3295218e+38
0.34693345 0.34709755 0.21954484 -3.356107e+38
0.34682477 0.34315148 0.21776931 nan
0.34677508 0.34117797 0.21692742 nan
0.3470521 0.33744603 0.21925732 -3.2361637e+38
0.34716436 0.33556622 0.22014807 -3.2760929e+38
0.34713876 0.33166218 0.21924619 -3.3290028e+38
0.34702459 0.32964596 0.21771903 nan
0.34718001 0.32779494 0.21906283 nan
0.34713733 0.32582194 0.2182904 nan
0.3472988 0.32397458 0.21970078 -3.3960881e+38
0.34719595 0.32001466 0.217969 nan
0.34731662 0.31619564 0.21862264 -3.3425032e+38
0.34735632 0.31427422 0.21873303 -3.3561585e+38
0.34757531 0.31247053 0.22074789 -3.3162815e+38
0.34740186 0.31040633 0.21858037 -3.342763e+38
0.34747618 0.30850634 0.21905354 -3.3291588e+38
0.3473421 0.30450955 0.2169801 -3.2755739e+38
0.34783706 0.30095842 0.22161147 -2.9289844e+38
0.3463119 0.29198596 0.20394482 -2.2349236e+38
0.34668082 0.29031873 0.20761967 -2.9150676e+38
0.34697857 0.28859058 0.21048349 -3.0484064e+38
0.34710792 0.2867305 0.21154137 -2.9819446e+38
0.34719959 0.28484166 0.21218811 -2.9953929e+38
0.34729177 0.28099358 0.2125444 -3.1017842e+38
0.34730822 0.27708343 0.21206501 -3.1016281e+38
0.34740174 0.27519801 0.21271348 -3.0085296e+38
0.3474631 0.27328655 0.21303222 -2.9819965e+38
0.34748501 0.27134502 0.21294633 -2.9419116e+38
0.34755477 0.26943985 0.21335214 -3.0617508e+38
0.34769475 0.26563561 0.21419436 -3.1414534e+38
0.34744769 0.26345664 0.21121889 -3.1149205e+38
0.3476682 0.26168334 0.21323702 -3.0751476e+38
0.3478767 0.25794059 0.21480465 -3.061907e+38
0.34773886 0.25585118 0.21299373 -3.0352701e+38
0.34779245 0.25393328 0.21322793 -3.1015757e+38
0.34776729 0.24997562 0.21228538 -3.0084255e+38
0.34798935 0.24821559 0.2143303 -3.0219778e+38
0.34801567 0.24430601 0.21393779 -2.9818933e+38
0.34825456 0.24256496 0.21616486 -3.0217182e+38
0.34856695 0.2172654 0.21505032 -3.0085813e+38
0.34884971 0.20572303 0.21603364 -3.343021e+38
0.34884885 0.20374414 0.21567068 -3.182734e+38
0.34889391 0.1998378 0.21545048 -2.9952383e+38
0.34908813 0.19610417 0.21684213 -3.0752007e+38
0.34913749 0.19220315 0.21666396 -3.1287339e+38
0.34920022 0.19029646 0.21698238 -3.1021489e+38
0.34913546 0.1882391 0.2159282 -3.0751995e+38
0.34936872 0.18653585 0.21808742 -3.1019406e+38
0.34966612 0.18490867 0.22088796 -2.7818854e+38
0.34954616 0.18277942 0.21921073 -2.3949013e+38
0.34998682 0.1813218 0.22361307 -2.0884503e+38
0.34956276 0.17881472 0.21863677 -1.8884416e+38
0.34937987 0.17660908 0.21630861 -1.8883374e+38
0.34922972 0.17443448 0.21431656 -1.8616485e+38
0.3493765 0.17263369 0.21554776 -1.8750455e+38
0.349507 0.17080943 0.21658593 -1.9150262e+38
0.34907991 0.16828579 0.21161655 -1.9416627e+38
0.34904027 0.1662659 0.21089199 -2.4485395e+38
0.34875548 0.16391426 0.20747365 -2.6218051e+38
0.34939182 0.16274473 0.21400121 -2.7685404e+38
0.34937933 0.16073832 0.21350113 -2.8084692e+38
0.34948105 0.15888114 0.21423776 -2.8352095e+38
0.34980118 0.15532145 0.21699393 -2.9420686e+38
0.34970754 0.1532037 0.21558645 -2.9151199e+38
0.34971756 0.15122499 0.21532761 -2.8618468e+38
0.34968126 0.14719085 0.21420164 -3.0219267e+38
0.34950629 0.14495991 0.2119479 -2.9687055e+38
0.34979203 0.14335248 0.21466838 -3.0086862e+38
0.35001612 0.13967444 0.21638227 -3.0352707e+38
0.34995461 0.13758998 0.21531497 -2.9417045e+38
0.34997666 0.13362795 0.2148166 -3.0483551e+38
0.3499344 0.13156952 0.21398643 -2.9951334e+38
0.35005194 0.12773784 0.21451876 -2.9950809e+38
0.35028583 0.1260743 0.21666963 -3.0484585e+38
0.35032758 0.1241361 0.21674959 -2.9950811e+38
0.35003829 0.12171388 0.21324438 -2.9543727e+38
0.3502076 0.11995798 0.21469808 -2.9947175e+38
0.35006657 0.11774956 0.2128022 -3.0350626e+38
0.35037228 0.11419367 0.21535827 -3.0481983e+38
0.35041571 0.11225104 0.21544144 -3.0346983e+38
0.35038459 0.11019569 0.21471566 -2.927891e+38
0.35064772 0.10859492 0.21721016 -2.8883275e+38
0.3504113 0.10623127 0.21426916 -2.6083568e+38
0.35060188 0.10451829 0.21596506 -2.6755476e+38
0.35049993 0.10034573 0.21409114 -2.6220128e+38
0.35064813 0.09856692 0.21531853 -2.8483468e+38
0.35040864 0.096183382 0.21233597 -2.7547279e+38
0.35062233 0.094506755 0.21427694 -2.9951332e+38
0.35065436 0.092547469 0.21424025 -2.9950813e+38
0.35078391 0.08873041 0.21488476 -3.0084257e+38
0.35084742 0.086818546 0.21518742 -2.9951332e+38
0.35104162 0.085118741 0.21690592 -3.0616989e+38
0.35102862 0.083085954 0.21638444 -3.0350622e+38
0.35094798 0.08094129 0.21512015 -2.995133e+38
0.35105979 0.07709492 0.21556467 -2.9418081e+38
0.35084251 0.074719429 0.21282074 -2.7146429e+38
0.3512513 0.069344282 0.2160742 -2.6616829e+38
0.35113063 0.067114875 0.21431978 -2.2619262e+38
0.35071087 0.056297507 0.20792514 -3.1817975e+38
0.35170293 0.051947746 0.2175214 -3.1816935e+38
0.32453355 0.93621635 0.07433413 -3.0618029e+38
0.32498786 0.92930526 0.078497678 -2.9552562e+38
0.32507649 0.92507321 0.079080686 -3.0484064e+38
0.32495952 0.92321777 0.077709369 -3.0086855e+38
0.32504177 0.92104167 0.078413159 -2.9821535e+38
0.32520181 0.91873229 0.07988441 -2.6624113e+38
0.32518253 0.91672176 0.079508118 -2.4753841e+38
0.32505944 0.91487294 0.07807035 -2.5285532e+38
0.3249653 0.91093868 0.076758228 -2.7688527e+38
0.32510775 0.9086687 0.078056075 -2.9819975e+38
0.32536355 0.90417975 0.080353774 -3.0350101e+38
0.3252337 0.90234244 0.078853212 -3.0085817e+38
0.32529959 0.89815909 0.07917285 -3.0085819e+38
0.32525343 0.89619082 0.078555882 -3.048303e+38
0.32526529 0.89208937 0.07830251 -2.9686527e+38
0.32518396 0.89017177 0.077281401 -2.888951e+38
0.32547051 0.88769746 0.080071874 -2.9152759e+38
0.32521087 0.88399249 0.07704284 -3.0616468e+38
0.32553932 0.88147962 0.0802636 -2.9819969e+38
0.32549003 0.87748116 0.079391003 -2.9419645e+38
0.32533121 0.87567765 0.07759881 -3.0350626e+38
0.3255699 0.87328702 0.07986293 -3.0748873e+38
0.32554391 0.87128675 0.079413399 -2.9552039e+38
0.32549152 0.86932921 0.078686394 -2.9289321e+38
0.32541239 0.86537087 0.0775363 -3.0484074e+38
0.32552624 0.86316973 0.078515902 -3.061595e+38
0.32545635 0.86123157 0.07762637 -3.0352178e+38
0.32565212 0.85892153 0.079442523 -2.9422761e+38
0.32578725 0.85669881 0.080657199 -2.9819977e+38
0.32580021 0.85465091 0.080633536 -3.0882841e+38
0.32554421 0.85092258 0.077602588 -3.0086853e+38
0.32581142 0.84852642 0.080174178 -2.9288276e+38
0.32597947 0.84424186 0.08156231 -3.0617516e+38
0.32587001 0.84235066 0.080233209 -3.1015759e+38
0.32584241 0.83832532 0.079567395 -2.86221e+38
0.32590041 0.83621752 0.07997565 -2.9421726e+38
0.32580045 0.83228058 0.078603461 -2.8749304e+38
0.32588652 0.83013743 0.079281688 -2.835001e+38
0.32597092 0.82799351 0.079952911 -2.8219168e+38
0.32612923 0.82373703 0.081209719 -2.8882752e+38
0.32595721 0.82192934 0.079202436 -2.861534e+38
0.32638681 0.81930554 0.083476283 -2.3813995e+38
0.32649806 0.81713897 0.084516048 -2.0086449e+38
0.32578903 0.81598687 0.076910481 -1.9549551e+38
0.32595366 0.81376868 0.078406714 -1.8081168e+38
0.32613581 0.81155717 0.080147631 -2.7558217e+38
0.32638952 0.80921829 0.082581572 -2.9556203e+38
0.32657304 0.80494243 0.084069744 -2.8485537e+38
0.32644433 0.80306721 0.082579494 -2.9281516e+38
0.3265079 0.80096012 0.083048508 -2.9280987e+38
0.3265107 0.7969147 0.082643881 -2.7819874e+38
0.32653472 0.79485512 0.082696557 -2.7684359e+38
0.32640606 0.79095018 0.081005298 -2.9013068e+38
0.32646289 0.78885835 0.081401981 -2.8750859e+38
0.32675168 0.78449303 0.083966777 -2.8753987e+38
0.32661545 0.7826187 0.082356669 -2.9816335e+38
0.32664663 0.77853572 0.082262762 -3.0218734e+38
0.32678068 0.77636445 0.083465904 -2.9155349e+38
0.3269352 0.77416116 0.0848362 -2.9288282e+38
0.32673892 0.77237177 0.082625888 -3.0617514e+38
0.32661265 0.7704792 0.081093527 -3.1281603e+38
0.32663196 0.76641417 0.080900416 -2.9688602e+38
0.32687798 0.76412737 0.083232075 -2.9953419e+38
0.32686225 0.76009953 0.082658023 -3.061595e+38
0.3269096 0.75802904 0.082958385 -2.9951326e+38
0.327277 0.73947614 0.084873758 -2.7554053e+38
0.32727331 0.73743892 0.084643111 -2.2487391e+38
0.32749432 0.73318189 0.086555406 -2.1421938e+38
0.32745707 0.7312032 0.085915811 -2.1688313e+38
0.32740214 0.72522902 0.084670529 -2.5556566e+38
0.32755038 0.72106242 0.085798256 -2.9419647e+38
0.32738617 0.71918994 0.083880462 -3.1149205e+38
0.32745388 0.71508986 0.08413218 -2.7552481e+38
0.32744601 0.70904392 0.083395414 -2.8215548e+38
0.32745457 0.70701951 0.083267905 -3.0217182e+38
0.32745942 0.70499665 0.083096571 -2.9685483e+38
0.3280881 0.69037372 0.088135287 -2.9554144e+38
0.3402102 0.66739357 0.2126348 -3.2227672e+38
0.34025666 0.66543561 0.21289557 -3.1691825e+38
0.34034428 0.66152614 0.2133759 -3.2094745e+38
0.34058321 0.65943414 0.215647 -3.2098388e+38
0.34039748 0.65572077 0.21326964 -3.3824327e+38
0.34035099 0.6538285 0.21256696 -3.3426587e+38
0.34057236 0.65175527 0.21464749 -3.2630081e+38
0.34060177 0.64981538 0.21472771 -3.2097349e+38
0.34060845 0.64788973 0.21457429 -3.3694524e+38
0.34052902 0.64409542 0.21330996 -3.3691397e+38
0.34051013 0.64218456 0.21288131 -3.3693995e+38
0.3406533 0.64017141 0.21414711 -3.289749e+38
0.34070629 0.63821727 0.21447873 -3.2497164e+38
0.34064594 0.63441038 0.21339722 nan
0.34081748 0.63238466 0.21496059 -3.3292622e+38
0.34078255 0.62856275 0.21413666 -3.2230793e+38
0.34080076 0.62663013 0.21410199 -3.2893862e+38
0.3407262 0.62282646 0.21286939 -3.3825875e+38
0.34082919 0.62084657 0.2137153 -3.3029371e+38
0.3411296 0.6187619 0.21661457 -3.2630606e+38
0.34103078 0.61689425 0.21535492 -3.3027825e+38
0.34099776 0.61306846 0.21454892 -3.3690354e+38
0.34087566 0.61120933 0.213048 -3.3160734e+38
0.34123626 0.60718477 0.21633311 -3.2628531e+38
0.34101525 0.60537112 0.21380228 -3.3425561e+38
0.34096572 0.60155153 0.21281184 -3.3025736e+38
0.34113455 0.59954792 0.21433873 -3.2762485e+38
0.34122384 0.59566319 0.21479961 -3.3560038e+38
0.34128484 0.59371448 0.21520239 -3.3823283e+38
0.34130028 0.58986455 0.21488126 -3.289385e+38
0.34147531 0.58786929 0.21646883 -3.2496643e+38
0.34139165 0.58598256 0.21535614 -3.3161269e+38
0.34132987 0.58408737 0.21447672 -3.355848e+38
0.34124714 0.58027416 0.21313101 -3.3161253e+38
0.34135547 0.57830942 0.21402349 -3.2763006e+38
0.34138161 0.57445502 0.21380994 -3.3958812e+38
0.34139869 0.57252395 0.21375084 nan
0.341584 0.56861442 0.21519159 -3.2895927e+38
0.34169737 0.56665385 0.21613826 -3.2895929e+38
0.34153849 0.56286097 0.21399154 nan
0.34157026 0.56092864 0.21407335 -3.3692954e+38
0.34162048 0.55706596 0.21409972 -3.2630085e+38
0.34161949 0.55321962 0.21359935 -3.3558999e+38
0.34167486 0.55127919 0.21392722 nan
0.34181449 0.54739648 0.21488807 -3.3430222e+38
0.34193695 0.54544038 0.21592069 -3.3162821e+38
0.34191331 0.54160035 0.21517427 -3.3558999e+38
0.34171927 0.53972143 0.21289103 nan
0.34182239 0.53777426 0.21371463 -3.3295214e+38
0.34191489 0.53582871 0.21443148 -3.2763527e+38
0.34195039 0.53389877 0.21454686 -3.3694522e+38
0.34180519 0.53007609 0.212524 -3.3958812e+38
0.34192878 0.52812564 0.21356146 -3.3960366e+38
0.34198484 0.51849008 0.21286316 -3.3693997e+38
0.3430486 0.50118947 0.21916595 -2.26151e+38
0.34221596 0.49912435 0.21259175 -1.8884424e+38
0.34202957 0.49722463 0.21038266 -1.8350648e+38
0.34247741 0.49143171 0.2143594 -2.00802e+38
0.34267488 0.48774141 0.21790151 -2.0616045e+38
0.34193516 0.4856773 0.20786057 -2.2483217e+38
0.34286663 0.47989571 0.21684565 -3.32942e+38
0.34287238 0.46640322 0.21501572 nan
0.34290844 0.46447518 0.21512429 nan
0.34305915 0.46062729 0.21615565 -3.2764572e+38
0.34299195 0.45869425 0.21517278 -3.3561076e+38
0.34315276 0.45484862 0.21631569 nan
0.34306663 0.452912 0.21513344 -3.3559506e+38
0.34328359 0.45100451 0.21713164 -3.3031446e+38
0.34336376 0.44908512 0.2177081 -3.3564187e+38
0.34325829 0.44521216 0.21604101 nan
0.3431744 0.44326991 0.21488117 nan
0.34353685 0.43946213 0.21812609 -3.2896967e+38
0.34348086 0.4375217 0.2172574 -3.316334e+38
0.34343138 0.43365389 0.21618135 nan
0.3433536 0.43170473 0.21508214 -3.3557427e+38
0.34347278 0.42979515 0.21605338 -3.3162291e+38
0.3435846 0.42788479 0.21694311 -3.2363716e+38
0.34366351 0.42597219 0.21749488 -3.2895419e+38
0.3437281 0.42212039 0.21760969 nan
0.3435877 0.42015487 0.21583626 -3.3691908e+38
0.34375194 0.41826093 0.21728683 -3.249612e+38
0.3437857 0.41633523 0.21735743 -3.2097349e+38
0.34370384 0.41244793 0.21592118 nan
0.34380347 0.41053858 0.21667805 nan
0.34399685 0.40672559 0.21813856 -3.2497677e+38
0.34402803 0.40479991 0.21817307 -3.2364237e+38
0.34401268 0.40092626 0.2174391 nan
0.34399325 0.39898342 0.21694267 nan
0.34421653 0.39518672 0.21871242 -3.2630083e+38
0.34437889 0.39330578 0.2201287 -3.2496643e+38
0.34421045 0.39131302 0.21805815 -3.3425034e+38
0.34403563 0.38931367 0.21592554 nan
0.34417534 0.3854883 0.21680696 -3.3161778e+38
0.34425709 0.38358054 0.21737511 -3.2362678e+38
0.34435213 0.37974373 0.21778549 -3.3959327e+38
0.34432784 0.37779444 0.2172316 nan
0.34448531 0.37398115 0.21830176 -3.3294184e+38
0.34463799 0.37210774 0.21961039 -3.3029898e+38
0.34447739 0.37009853 0.21761435 -3.2495605e+38
0.34464854 0.36823577 0.21912123 nan
0.34464729 0.36629418 0.21881407 nan
0.34454346 0.36430705 0.21741487 -3.3823279e+38
0.34454831 0.36236903 0.21716847 -3.3560027e+38
0.34483594 0.3586233 0.21959262 -3.3295224e+38
0.3448776 0.35670337 0.21973537 -3.3959323e+38
0.34482694 0.35279587 0.21859355 nan
0.3448562 0.35086808 0.21859856 -3.3025734e+38
0.34497365 0.34704319 0.21922593 -3.3029377e+38
0.34492782 0.34313238 0.21812913 -3.3957244e+38
0.34493428 0.34119257 0.21788314 nan
0.34503877 0.33735994 0.21838036 -3.2760931e+38
0.34509128 0.33155403 0.21800488 -3.3824319e+38
0.34527302 0.3219291 0.21837157 -3.2895931e+38
0.34561366 0.30266017 0.21881987 -3.289074e+38
0.3444134 0.29197109 0.20441118 -2.2348197e+38
0.34482145 0.29033005 0.20845018 -2.8617423e+38
0.34539363 0.28293955 0.21324478 -3.0085294e+38
0.34542862 0.28100696 0.21329124 -3.0350624e+38
0.34559152 0.2713342 0.21338639 -3.0218218e+38
0.34601411 0.25992143 0.21589981 -2.9816852e+38
0.34596235 0.25005028 0.21368267 -3.0481987e+38
0.34613073 0.24430513 0.21446747 -2.9818408e+38
0.34614849 0.24235511 0.21432392 -2.9818927e+38
0.34634775 0.2386099 0.21577525 -3.021562e+38
0.34630048 0.23659609 0.21493177 -3.0616474e+38
0.3462283 0.23258434 0.21348225 -3.0484587e+38
0.3463544 0.23073742 0.21448721 -2.9818929e+38
0.34652409 0.22696581 0.21561076 -2.9950813e+38
0.34648404 0.22495383 0.21484376 -3.0083738e+38
0.34652975 0.2210563 0.21464916 -3.0749397e+38
0.3465983 0.21718045 0.21469164 -3.0484585e+38
0.34671718 0.21533154 0.2156148 -3.0218214e+38
0.34670028 0.21136333 0.21477374 -3.0619595e+38
0.34665683 0.20934072 0.21395665 -2.9687582e+38
0.34690192 0.2076343 0.21623905 nan
0.34693697 0.20569459 0.21626155 -3.2234937e+38
0.34685445 0.20362554 0.2150341 -3.2084354e+38
0.34706745 0.1999093 0.21658285 -2.9820493e+38
0.34704378 0.19790353 0.2159768 -3.0218744e+38
0.34707969 0.19596693 0.21604255 -2.9286211e+38
0.34718785 0.19411439 0.2168508 -3.2350222e+38
0.3470372 0.19195935 0.21488567 -2.955258e+38
0.34729642 0.18830149 0.21695811 -3.1824737e+38
0.34775031 0.18487504 0.22107387 -2.8885362e+38
0.34793219 0.18110183 0.2221811 -1.994832e+38
0.34755489 0.17867118 0.21783035 -1.9149745e+38
0.3475149 0.17663679 0.21703957 -1.9283704e+38
0.3474462 0.17457084 0.21591489 -1.8749928e+38
0.34744665 0.17259333 0.21561776 -1.9150781e+38
0.34753269 0.17070991 0.216181 -1.9550592e+38
0.34710315 0.16818385 0.21121532 -1.9282661e+38
0.34674042 0.16574608 0.20698932 -2.0751053e+38
0.3468838 0.16395441 0.20824243 -2.5419475e+38
0.34741506 0.1626388 0.21357638 -2.8085215e+38
0.34730095 0.1605041 0.21199808 -2.8484504e+38
0.34739852 0.15863685 0.21267726 -2.8616904e+38
0.3476201 0.15693413 0.21468803 -2.9020358e+38
0.34781447 0.15519676 0.21641339 -2.9287244e+38
0.34774226 0.15311068 0.21527673 -2.9151197e+38
0.34767243 0.15102701 0.21416225 -2.888379e+38
0.34759936 0.14893493 0.21301752 -2.8884313e+38
0.34764183 0.14500365 0.21274608 -2.9420169e+38
0.34778908 0.14320923 0.21399364 -3.035323e+38
0.34802166 0.1415291 0.21608852 -2.9818931e+38
0.34793571 0.13542436 0.21407126 -2.9551528e+38
0.34826645 0.12589745 0.21577688 -2.981841e+38
0.34878454 0.10663577 0.21758278 -2.6483375e+38
0.34871775 0.1045315 0.21649413 -2.5285522e+38
0.34839746 0.10203861 0.21269436 -2.301542e+38
0.34903538 0.086960427 0.21655636 -3.021718e+38
0.3490032 0.082883768 0.21544342 -3.0083738e+38
0.34916836 0.077110216 0.21607471 -3.0216663e+38
0.34903407 0.072856799 0.213857 -2.8353139e+38
0.34920171 0.071117051 0.21528471 -2.9549966e+38
0.34946203 0.067512862 0.21729627 -2.368577e+38
0.3495869 0.063692681 0.21792814 -2.6218057e+38
0.34932888 0.061238103 0.2147643 -3.1153359e+38
0.34898859 0.058639493 0.2107119 -3.1551089e+38
0.34961367 0.051616803 0.21589218 -3.155057e+38
0.349585 0.049545147 0.21519589 -3.1416087e+38
0.34954843 0.047455415 0.2144125 -3.0350105e+38
0.34944224 0.045239929 0.21286991 -3.0084259e+38
0.34968835 0.043648027 0.21510014 -2.9817373e+38
0.32274312 0.93578821 0.077059135 -2.9422763e+38
0.3229551 0.93338054 0.079066664 -3.0085823e+38
0.32295746 0.93133277 0.078925073 -3.0483034e+38
0.32306853 0.92910439 0.079900049 -3.0085296e+38
0.32304969 0.92300367 0.07919915 -3.0353228e+38
0.32291108 0.91913271 0.077422738 -2.8487105e+38
0.32300475 0.91693723 0.078210026 -2.5687404e+38
0.32313192 0.91468668 0.079358295 -2.5417415e+38
0.32292184 0.91297919 0.077026486 -2.674977e+38
0.32285902 0.91103405 0.076209038 -2.8483985e+38
0.322952 0.90884107 0.077023119 -3.0484587e+38
0.32319292 0.90642315 0.079293154 -2.9953931e+38
0.32328781 0.90423286 0.08009252 -2.9953415e+38
0.3230029 0.90263498 0.077003278 -3.0085304e+38
0.32312429 0.89836484 0.077921152 -3.0483543e+38
0.32322502 0.89616686 0.078755789 -2.9953409e+38
0.32324395 0.89206028 0.078621946 -3.0085304e+38
0.32314265 0.89017206 0.077406444 -2.9818935e+38
0.32338762 0.88572162 0.07954555 -2.9684959e+38
0.32340896 0.8836537 0.079586275 -3.0353224e+38
0.323497 0.88148344 0.080322199 -2.9687053e+38
0.32336685 0.87759739 0.078632832 -3.0751476e+38
0.32336602 0.8755601 0.078441367 -2.995289e+38
0.32331282 0.87360209 0.077715918 -2.9818406e+38
0.32351983 0.87125516 0.079655841 -3.0351667e+38
0.32357621 0.86914062 0.080114402 -2.9818935e+38
0.3234143 0.86530888 0.078055039 -3.0486666e+38
0.32365128 0.86293447 0.080287628 -3.0084776e+38
0.32364091 0.85888135 0.079842344 -3.0087381e+38
0.32346925 0.85708135 0.077879034 -3.0619593e+38
0.32357663 0.85489792 0.078791909 -3.075095e+38
0.32385123 0.85248631 0.08143355 -3.0884396e+38
0.32368085 0.85068935 0.079490446 -3.0085819e+38
0.32365108 0.84869558 0.079021461 -3.0351667e+38
0.32378507 0.84444398 0.080012873 -3.0485626e+38
0.32365808 0.84258044 0.078524932 -3.0484585e+38
0.32372519 0.83842868 0.07886 -2.9287763e+38
0.32386073 0.83621544 0.080044731 -2.9554645e+38
0.32391927 0.83207613 0.080263436 -2.9550485e+38
0.32370451 0.83031833 0.077877417 -2.8616898e+38
0.32405391 0.82783717 0.081271626 -2.861794e+38
0.3236354 0.8263436 0.076781183 -2.8483456e+38
0.32398546 0.82385486 0.080189049 -2.8749825e+38
0.3238565 0.8179419 0.078304373 -2.5286557e+38
0.32374486 0.81604493 0.076948836 -2.3555453e+38
0.32431477 0.81332189 0.082625866 -3.2104708e+38
0.32462868 0.81090879 0.085667387 -2.82374e+38
0.32453194 0.80899912 0.08448761 -3.0087904e+38
0.32422695 0.8012529 0.080538839 -2.9549434e+38
0.32433018 0.79302329 0.080814421 -2.8348971e+38
0.32475561 0.78443772 0.08439669 -2.888639e+38
0.32466793 0.76633185 0.081694238 -2.9422759e+38
0.32505083 0.76188689 0.085224211 -3.0750433e+38
0.32499582 0.75789821 0.084232517 -2.9953409e+38
0.32524967 0.75562137 0.086654142 -2.955516e+38
0.32500786 0.75182712 0.083744228 -3.0352186e+38
0.32487497 0.74993551 0.082158096 -3.1149719e+38
0.32475767 0.74803007 0.080760397 -3.0751467e+38
0.32503641 0.7457341 0.083414659 -2.9555683e+38
0.32490635 0.74384058 0.081839606 -2.9155355e+38
0.32515737 0.74157774 0.08423996 -3.0350626e+38
0.32504809 0.73964953 0.082888715 -2.9284126e+38
0.32527024 0.73741537 0.084967725 -2.5814621e+38
0.3259156 0.73276591 0.09118475 -2.3155646e+38
0.32536304 0.73124301 0.085307755 -2.1555386e+38
0.32518491 0.7274003 0.083028249 -2.3283369e+38
0.32538125 0.72521091 0.084831931 -2.7690606e+38
0.32551569 0.72105396 0.085786752 -3.0218742e+38
0.32523164 0.71929026 0.082661718 -3.1282126e+38
0.32540384 0.71712089 0.084227115 -3.0750431e+38
0.32568341 0.71485579 0.08687292 -2.7553526e+38
0.32544574 0.71303684 0.084243819 -2.528449e+38
0.32563335 0.71086514 0.085923128 -2.6218071e+38
0.32539058 0.70905393 0.083202794 -2.7682299e+38
0.32553104 0.70691746 0.084432967 -2.9150163e+38
0.32559666 0.70484465 0.084885456 -2.941912e+38
0.32575428 0.7006827 0.086063787 -2.9952381e+38
0.32578933 0.69863898 0.086215548 -3.0215101e+38
0.32553771 0.69682372 0.083394974 -3.0748871e+38
0.32574484 0.69464117 0.085309066 -2.9818931e+38
0.32595739 0.6924566 0.087275386 -2.9422243e+38
0.32595143 0.69044143 0.086996101 -2.8087815e+38
0.33801585 0.66949439 0.21022762 -3.0500191e+38
0.33814889 0.66747224 0.21138984 -3.1428052e+38
0.33841088 0.66535908 0.21387762 -3.3423468e+38
0.33823088 0.66356403 0.21180466 -3.3158144e+38
0.33828172 0.66160417 0.21210718 -3.196339e+38
0.33842319 0.65958065 0.21334848 -3.116793e+38
0.33850652 0.65567774 0.2137734 nan
0.33843464 0.65380275 0.21281393 -3.3822236e+38
0.33865026 0.64981347 0.21459715 -3.1831508e+38
0.33860105 0.64792424 0.21386771 -3.182995e+38
0.33859971 0.6440804 0.21340907 nan
0.33885112 0.64007729 0.21556138 -3.1832029e+38
0.33881444 0.63817859 0.21496056 -3.2099442e+38
0.33871868 0.6343919 0.21352318 nan
0.33893105 0.63234353 0.21549584 -3.3291582e+38
0.33889276 0.62852323 0.21464254 -3.1566183e+38
0.33891907 0.62658632 0.21468543 -3.2761975e+38
0.33875477 0.62283319 0.21253522 -3.3957238e+38
0.3389051 0.62082696 0.21386656 -3.2229232e+38
0.33892247 0.61120367 0.21288954 -3.329418e+38
0.33900848 0.60731536 0.21331431 -3.1830467e+38
0.33899802 0.60347432 0.21274146 nan
0.33923191 0.58221281 0.21257001 nan
0.33973762 0.56664538 0.21587755 -3.2231321e+38
0.33947295 0.56096053 0.21240303 nan
0.33977225 0.53585511 0.21227354 -3.249872e+38
0.34024498 0.52613634 0.21592319 -3.2098394e+38
0.34032288 0.52419907 0.21648076 -3.0364157e+38
0.34010294 0.52231085 0.21394008 -3.1159103e+38
0.34008318 0.52038825 0.21348095 nan
0.34016383 0.51844919 0.21406242 -3.3825356e+38
0.34025496 0.51458657 0.21449211 -3.1698064e+38
0.34023461 0.51266348 0.21401975 -3.263061e+38
0.34017187 0.50881737 0.21285357 nan
0.34037274 0.50686812 0.21468876 -3.2894385e+38
0.34052715 0.50492853 0.21603511 -3.1163259e+38
0.34071863 0.50298572 0.217794 -3.0896892e+38
0.34168813 0.50147563 0.2268512 -2.3549202e+38
0.33933744 0.49919152 0.20287977 -1.9284229e+38
0.34013662 0.4972415 0.21090798 -2.3023241e+38
0.34046006 0.49530017 0.21403125 -2.5691582e+38
0.34061071 0.49336267 0.21533503 -2.5961069e+38
0.34054154 0.49144277 0.21435101 -2.7426862e+38
0.34085652 0.48757112 0.21709713 -2.7557197e+38
0.34021908 0.48565882 0.21017942 -2.208393e+38
0.34061506 0.48372751 0.21406089 -2.7426852e+38
0.34065843 0.48180059 0.21423696 -3.009468e+38
0.34075782 0.47987279 0.21500264 -3.2095804e+38
0.3408806 0.47601858 0.21575452 -3.3825374e+38
0.34084365 0.47215885 0.21483071 -3.3433356e+38
0.34091091 0.47023299 0.21526013 -3.3831611e+38
0.34105033 0.46831033 0.21645217 nan
0.34097382 0.46637771 0.21538065 nan
0.34096655 0.46444833 0.21503308 nan
0.34115115 0.46060359 0.2164093 -3.2895939e+38
0.34120095 0.45867938 0.21666032 -3.356107e+38
0.34114033 0.45481369 0.21548609 nan
0.34128273 0.45289916 0.2167009 -3.3826398e+38
0.34141499 0.44905546 0.21752413 -3.2764048e+38
0.34144706 0.44520065 0.21731201 nan
0.34130573 0.44324979 0.21555737 nan
0.34139282 0.4393999 0.21591203 -3.2629568e+38
0.34153154 0.4374924 0.21708198 -3.2896454e+38
0.34136748 0.43553081 0.21508749 -3.3426587e+38
0.34150323 0.43362328 0.2162258 nan
0.34151444 0.43169326 0.2160652 nan
0.34166348 0.42785883 0.21706031 -3.2896456e+38
0.34172487 0.42593837 0.21741448 -3.3162825e+38
0.34177944 0.42208755 0.21742244 nan
0.34191108 0.41825131 0.21823396 -3.2362162e+38
0.34177762 0.41628778 0.21655688 -3.2764052e+38
0.34169966 0.41239667 0.21516724 nan
0.34176773 0.41047961 0.21559563 nan
0.34197792 0.40860403 0.21750905 -3.3292622e+38
0.34239274 0.389384 0.21895961 -3.3690873e+38
0.34272555 0.37014222 0.21950033 -3.2894896e+38
0.34290797 0.36246812 0.22022079 -3.3690871e+38
0.34284568 0.35467449 0.21836352 -3.3557948e+38
0.34302637 0.35088283 0.21965863 -3.3158146e+38
0.34297499 0.34697038 0.21851312 -3.3027819e+38
0.34319058 0.33931363 0.21955609 -3.342451e+38
0.34312499 0.3373313 0.21856225 -3.3293151e+38
0.3431232 0.33538494 0.21823518 -3.369296e+38
0.34330866 0.33160263 0.21956295 nan
0.34329629 0.32965001 0.2191315 nan
0.34342003 0.32583314 0.21981807 -3.3959329e+38
0.34330934 0.3238188 0.21834117 -3.3293669e+38
0.34345651 0.32001224 0.2192629 -3.3159176e+38
0.34355161 0.31617814 0.21963927 nan
0.34352925 0.31421611 0.21909501 nan
0.34351701 0.31225938 0.21865228 nan
0.34353611 0.31032124 0.21853796 -3.30273e+38
0.34352115 0.30836025 0.21806408 -3.2359558e+38
0.34362599 0.30452928 0.21854317 -3.1958711e+38
0.34372845 0.30265108 0.2193048 -3.2756773e+38
0.34207532 0.29163414 0.20024933 -2.1682541e+38
0.34317774 0.28856096 0.21125148 -3.0616468e+38
0.34341872 0.28678349 0.21346918 -3.0350105e+38
0.34334868 0.28477123 0.21241601 -3.0218221e+38
0.34337977 0.28087571 0.21209744 -2.9285153e+38
0.34347507 0.27898872 0.21277072 -2.9684959e+38
0.34356815 0.27710235 0.21343036 -2.9817365e+38
0.34355342 0.27513027 0.21295606 -3.00827e+38
0.34362429 0.27322492 0.21337618 -3.08818e+38
0.34361383 0.27125418 0.21292952 -3.0350103e+38
0.34369424 0.26935807 0.21346058 -2.9818929e+38
0.3436521 0.26736099 0.21269251 -2.9686004e+38
0.34366915 0.26541117 0.2125421 -3.0218218e+38
0.34374875 0.26351702 0.21305403 -3.0616987e+38
0.3438504 0.25967509 0.21347257 -3.075096e+38
0.34394354 0.25779229 0.21414998 -3.0752518e+38
0.34378755 0.25568891 0.21214935 -2.9552562e+38
0.34384346 0.25377178 0.21240325 -2.9684964e+38
0.34406325 0.25200325 0.21439603 -3.0750429e+38
0.34418291 0.25014684 0.21532774 -3.0616991e+38
0.34421831 0.2482138 0.2154036 -3.0749916e+38
0.34396014 0.24403888 0.21198405 -3.0484587e+38
0.34403339 0.24213657 0.21242228 -3.0085815e+38
0.34438771 0.23853759 0.21549708 -3.0083734e+38
0.34433398 0.23651701 0.21459687 -3.0749916e+38
0.34443119 0.23267058 0.21493669 -3.1017323e+38
0.34425807 0.23053128 0.21278456 -3.0084774e+38
0.3444128 0.22871274 0.21408513 -3.0218221e+38
0.34448904 0.22681752 0.21454874 -3.0085815e+38
0.3445833 0.22494102 0.2152025 -2.9950813e+38
0.34473321 0.22311984 0.21645421 -3.0617516e+38
0.34461507 0.22102918 0.21486993 -3.0748879e+38
0.3444635 0.21889648 0.21292241 -3.0615431e+38
0.34461626 0.21708272 0.21420221 -3.0350622e+38
0.34475595 0.2152548 0.21533617 -3.0351663e+38
0.34471217 0.21125962 0.21421209 -2.9956543e+38
0.34492084 0.20950803 0.21608329 nan
0.34490621 0.20751522 0.21558912 -2.9695372e+38
0.34479168 0.20541412 0.21400243 -3.0484593e+38
0.34483644 0.20348637 0.21416011 -3.0883881e+38
0.34492955 0.19765215 0.21410938 -3.0086344e+38
0.34506512 0.19384678 0.21485028 -3.0883364e+38
0.34515119 0.188003 0.21472202 -3.1687138e+38
0.34612536 0.18320318 0.22394036 -2.5817737e+38
0.3454273 0.17838451 0.21578085 -1.8883895e+38
0.34563261 0.17269203 0.21694198 -1.9684559e+38
0.34552571 0.17057188 0.21542346 -1.9551113e+38
0.34455651 0.16539063 0.20444714 -2.0083845e+38
0.34496564 0.16393009 0.2084953 -2.408713e+38
0.34558156 0.16072649 0.2143234 -2.8217618e+38
0.34564275 0.14885603 0.21285869 -2.8618468e+38
0.34590885 0.14522231 0.21496278 -2.9419647e+38
0.34600034 0.13936292 0.21485631 -2.9687574e+38
0.34619939 0.1376389 0.21658137 -2.9552051e+38
0.34585875 0.13517374 0.21258794 -2.9284639e+38
0.34601671 0.13339326 0.21390675 -2.941756e+38
0.34607407 0.13147545 0.214157 -2.9950813e+38
0.34623274 0.12770255 0.21511938 -2.9817371e+38
0.34610021 0.123514 0.21297453 -2.9684444e+38
0.34617853 0.12162332 0.21344134 -2.9145997e+38
0.34619942 0.11965216 0.21329194 -2.8881186e+38
0.34627619 0.11575662 0.21340853 -3.0483026e+38
0.34668744 0.11435518 0.21739246 -3.0083213e+38
0.34661993 0.11225501 0.21630093 -3.0346983e+38
0.34638306 0.10990139 0.21340919 -2.9012543e+38
0.34689951 0.10866319 0.21854573 -2.9017755e+38
0.34653011 0.10609 0.21415886 -2.4345167e+38
0.34655893 0.10414188 0.21414365 -2.3684196e+38
0.34660298 0.10019538 0.21389462 -2.6220134e+38
0.34672731 0.098377854 0.2148463 -2.8217618e+38
0.34676927 0.09442544 0.21455267 -2.9683923e+38
0.34686527 0.09256468 0.21520212 -3.0616987e+38
0.34703863 0.090825818 0.21667485 -3.0750433e+38
0.3470023 0.08875756 0.21590838 -3.0351663e+38
0.34698284 0.086716421 0.21532843 -3.0217178e+38
0.34717536 0.085010685 0.21700615 -3.0617512e+38
0.34708083 0.082847916 0.21562502 -2.9951334e+38
0.34705934 0.080800861 0.21501425 -2.9817888e+38
0.3472726 0.077116467 0.21653652 -3.0083736e+38
0.34705922 0.074755982 0.21387784 -2.7145906e+38
0.34682605 0.072357789 0.21100251 -2.8087288e+38
0.34711245 0.070809044 0.21368532 -3.0217176e+38
0.34711143 0.068786666 0.21328965 -2.7949694e+38
0.34763998 0.067644991 0.21856086 -2.6486501e+38
0.34785259 0.063968293 0.22007142 -2.7950732e+38
0.34773782 0.061762549 0.21850231 -3.0884392e+38
0.34722117 0.058870811 0.21258777 -3.1683493e+38
0.34684137 0.056204028 0.20814463 -3.1950898e+38
0.34717175 0.054738451 0.21128616 -3.2083821e+38
0.34748232 0.053247746 0.21423201 -3.1816416e+38
0.34771737 0.051631071 0.21636841 -3.1150242e+38
0.34763965 0.049468752 0.21513927 -3.0616987e+38
0.34758806 0.045329835 0.21378554 -3.0084257e+38
0.34770313 0.043505248 0.21463187 -2.9549964e+38
0.32048923 0.93612921 0.07503558 -2.9822576e+38
0.32092988 0.9333533 0.079345949 -2.9818933e+38
0.3208971 0.92931521 0.078661427 -2.9951328e+38
0.32110581 0.92692834 0.080612451 -2.9421718e+38
0.32098025 0.92304456 0.079031445 -3.0352192e+38
0.32083544 0.92123187 0.07738699 -3.1016285e+38
0.32105523 0.91883463 0.079425037 -3.0085817e+38
0.32076097 0.91724825 0.076281168 -2.7684891e+38
0.32065374 0.91332012 0.074836992 -2.6089306e+38
0.32101578 0.91072172 0.078375325 -2.9819458e+38
0.32088742 0.90887773 0.076899916 -3.0616466e+38
0.32126606 0.90216231 0.080206253 -3.0350632e+38
0.32098907 0.90054339 0.077219889 -3.101368e+38
0.3211326 0.89828438 0.078530766 -3.0882828e+38
0.32145712 0.89371061 0.081458442 -2.9155877e+38
0.32115757 0.89008272 0.078089841 -3.08818e+38
0.32121456 0.88184077 0.077958681 -3.0485115e+38
0.32173288 0.86073333 0.08143235 -3.0485634e+38
0.32147247 0.85701859 0.078436933 -3.0617508e+38
0.32191709 0.83608967 0.081106596 -2.9285674e+38
0.32202306 0.83188969 0.081789918 -2.8220208e+38
0.32200348 0.82988524 0.081399396 -2.9684454e+38
0.32188886 0.82799983 0.080044262 -2.9815292e+38
0.32169384 0.82418048 0.077684961 -2.8484492e+38
0.32187748 0.82191777 0.07935442 -2.8352612e+38
0.32180557 0.81591517 0.078108974 -3.0090522e+38
0.322135 0.81349009 0.081235036 -2.7041091e+38
0.32283875 0.81061059 0.088219009 -3.3162863e+38
0.32262397 0.80884343 0.085832901 -2.8887431e+38
0.32233068 0.80716741 0.082635395 -2.9414439e+38
0.32224122 0.80524105 0.081561647 -2.9149106e+38
0.32248241 0.80293328 0.083783597 -2.8885859e+38
0.32245734 0.79891437 0.083139837 -2.9150157e+38
0.32225651 0.79711425 0.080897972 -2.8615866e+38
0.3223207 0.7950092 0.081384361 -2.8216572e+38
0.32247737 0.79280949 0.082754917 -2.7551948e+38
0.32232243 0.79095685 0.080978706 -2.8483975e+38
0.32231766 0.78893203 0.080718949 -2.8351054e+38
0.32243472 0.78678346 0.081728421 -2.9418086e+38
0.32270128 0.7844637 0.084276736 -2.9418081e+38
0.3223559 0.78282416 0.08054658 -2.9288272e+38
0.32268333 0.78043962 0.08367756 -3.0221859e+38
0.32280952 0.77827162 0.084770665 -3.0752518e+38
0.32284907 0.7762118 0.084971882 -3.0618553e+38
0.32264528 0.77440459 0.082676582 -3.0752514e+38
0.32260814 0.77242285 0.082114711 -3.0086847e+38
0.32253617 0.77047521 0.081148297 -2.9554118e+38
0.32247901 0.76851398 0.080381811 -3.0353228e+38
0.32258558 0.76637626 0.08127106 -3.0619078e+38
0.32255402 0.76438636 0.080739893 -3.0219782e+38
0.32267177 0.7622391 0.081733108 -3.0219776e+38
0.32300115 0.75987679 0.084902756 -3.0619589e+38
0.32310647 0.7577439 0.085756607 -3.0485109e+38
0.32308924 0.75574589 0.085392028 -3.0218221e+38
0.32294607 0.75386876 0.083728082 -3.021874e+38
0.32306907 0.75172454 0.084774211 -3.0219253e+38
0.32306862 0.74970746 0.084556334 -3.0487177e+38
0.32287607 0.74786943 0.082380421 -3.0752514e+38
0.32319701 0.74554074 0.085452564 -3.0219265e+38
0.32303995 0.74367142 0.083641529 -3.0485628e+38
0.3231104 0.73956388 0.083937258 -2.9952369e+38
0.3233133 0.73734963 0.085783467 -2.9684456e+38
0.32308283 0.7355476 0.083239853 -2.9553613e+38
0.32363671 0.73300159 0.088707998 -2.6487555e+38
0.32337648 0.73121119 0.08581648 -2.1821741e+38
0.32319939 0.72935247 0.083795406 -2.1555378e+38
0.32321951 0.72734022 0.083762161 -2.5150009e+38
0.32326639 0.72527987 0.0840284 -2.9686014e+38
0.3232471 0.72327697 0.083615147 -2.968497e+38
0.32349166 0.72104096 0.08590848 -2.9951852e+38
0.32332876 0.71915823 0.084020324 -3.0219259e+38
0.32331422 0.71312124 0.083226234 -2.6617882e+38
0.32356605 0.71088779 0.085588329 -2.8220219e+38
0.32361877 0.7068094 0.085695088 -2.7954379e+38
0.32358345 0.70482296 0.085110985 -2.9684972e+38
0.32339185 0.70296162 0.082927801 -2.9818416e+38
0.32346442 0.70088375 0.083453916 -2.9686006e+38
0.32374611 0.69863987 0.086118259 -3.0751993e+38
0.32388622 0.69449615 0.087127261 -3.0351669e+38
0.32364428 0.69266856 0.08441104 -2.9553085e+38
0.3239626 0.69040734 0.087471277 -2.9821537e+38
0.33662352 0.66139734 0.21501034 -3.1559942e+38
0.3363997 0.65962964 0.21250458 -3.2628012e+38
0.33651289 0.65377986 0.21300603 -3.329262e+38
0.33678198 0.62476307 0.21241878 -3.3558468e+38
0.33702898 0.62270266 0.21472764 -3.3292622e+38
0.33701846 0.61694151 0.21393378 -3.2762493e+38
0.3370572 0.61499751 0.21410444 -3.2893854e+38
0.33704251 0.61116248 0.21349044 -3.3160742e+38
0.33710828 0.60728317 0.21370925 -3.2762495e+38
0.33718678 0.60532218 0.21427773 -3.3426585e+38
0.33722389 0.60146058 0.21420041 -3.3026781e+38
0.33726987 0.5995155 0.21444431 -3.2229242e+38
0.33726805 0.59567285 0.21395363 -3.2894377e+38
0.33735347 0.59371084 0.2145966 -3.3025736e+38
0.33749029 0.58980697 0.21553805 -3.2760939e+38
0.33740869 0.58791924 0.21445884 -3.2096323e+38
0.33749193 0.58404106 0.21483994 -3.2493526e+38
0.33754885 0.58017594 0.21494709 -3.1963402e+38
0.33750996 0.57826573 0.21431673 -3.1697561e+38
0.33757791 0.57439429 0.21456835 -3.0365724e+38
0.33772039 0.57242244 0.21576466 -3.023124e+38
0.33774394 0.56856728 0.2155515 -2.9568717e+38
0.33786511 0.56660473 0.216565 -2.8770653e+38
0.33781525 0.56470084 0.21577567 -2.9168904e+38
0.33771771 0.56281 0.21452802 -2.9434748e+38
0.33770826 0.56088805 0.2141881 -2.9300786e+38
0.33780015 0.55701405 0.21464795 -2.8236372e+38
0.3376866 0.5532003 0.21297996 -2.8101883e+38
0.33788326 0.55122119 0.21476062 -2.8100325e+38
0.33785895 0.54737794 0.21402702 -2.7569159e+38
0.33793816 0.54543406 0.21459648 -2.7703119e+38
0.33791235 0.54159248 0.21382064 -3.3824837e+38
0.3379181 0.53966635 0.21363665 -3.369296e+38
0.33794153 0.53581119 0.2133742 -3.382796e+38
0.33791018 0.53389281 0.21280445 -3.3695031e+38
0.338038 0.531941 0.21386704 nan
0.33793563 0.53003436 0.21256137 nan
0.33811185 0.52807546 0.21413119 -3.3427111e+38
0.33827069 0.52612239 0.21551745 -3.1695997e+38
0.3382408 0.52420074 0.21495506 -2.7424264e+38
0.33814967 0.52036566 0.21350625 -3.3560029e+38
0.33810195 0.51844698 0.21275617 -3.3960362e+38
0.33825603 0.5145731 0.21383874 -3.2229248e+38
0.33823919 0.51264834 0.21340685 -3.3297309e+38
0.3382937 0.50878781 0.21345314 -3.3693484e+38
0.33839366 0.50685155 0.21422592 -3.3025752e+38
0.33848608 0.50298828 0.21470155 -3.1428588e+38
0.33924013 0.50112438 0.2241777 -2.4218499e+38
0.33745831 0.49917337 0.20358653 -1.8884424e+38
0.33840883 0.49721247 0.21309397 -2.7426353e+38
0.33854732 0.49334946 0.21400131 -3.0626893e+38
0.33856177 0.49142092 0.21388906 -2.9826748e+38
0.33856067 0.48561695 0.21306118 -2.2616659e+38
0.33857673 0.48370516 0.21299085 -2.8224918e+38
0.33874965 0.48177567 0.21451077 -3.0226045e+38
0.33880296 0.47984645 0.2147927 -3.3029912e+38
0.338954 0.47599345 0.21582261 -3.3161796e+38
0.33902737 0.47406533 0.21632202 -3.2494057e+38
0.33894196 0.47213367 0.21516812 -3.3160235e+38
0.33899617 0.4702082 0.21545875 -3.2895426e+38
0.33915684 0.46443057 0.21632197 nan
0.33913583 0.4586392 0.21529137 -3.3830552e+38
0.33928853 0.4547942 0.21633312 nan
0.33948836 0.44323751 0.2167602 -3.3427105e+38
0.33955976 0.42585984 0.21499829 -3.3427109e+38
0.33971006 0.41622186 0.21515669 -3.3423991e+38
0.33992729 0.41240838 0.21684197 -3.3027292e+38
0.34007806 0.40664569 0.21755432 -3.395725e+38
0.34008005 0.40471011 0.21728987 -3.3559516e+38
0.34019926 0.40087742 0.21795462 -3.2894369e+38
0.34029654 0.39897251 0.21867868 -3.3160216e+38
0.34030068 0.39510179 0.21814686 -3.369036e+38
0.34021333 0.39119843 0.21666043 -3.3027292e+38
0.3403312 0.38930342 0.21759927 -3.2627479e+38
0.34055835 0.38551214 0.21937582 -3.3825364e+38
0.34036341 0.38350239 0.21706194 -3.3557435e+38
0.34041741 0.3796463 0.21703981 -3.2759886e+38
0.34059292 0.37777582 0.2185706 -3.289385e+38
0.3405835 0.37389514 0.2178881 -3.3558476e+38
0.34043935 0.37189505 0.21609616 -3.3690364e+38
0.34073019 0.36813924 0.21852618 -3.3161257e+38
0.34085119 0.36431375 0.21919623 -3.3292099e+38
0.3408348 0.36236647 0.21873154 -3.38238e+38
0.34086818 0.3585003 0.21848205 -3.3691914e+38
0.34086508 0.35655743 0.21815096 -3.3427105e+38
0.34097937 0.35272884 0.21873859 -3.2759886e+38
0.34104708 0.35082072 0.2191485 -3.3425036e+38
0.3410956 0.34696028 0.21905097 -3.3290547e+38
0.34102008 0.34497818 0.21796304 -3.3293659e+38
0.34126633 0.34316522 0.22022887 -3.2626959e+38
0.34114912 0.34115845 0.21869868 -3.2760406e+38
0.34122196 0.33730942 0.21885407 -3.3422953e+38
0.34119207 0.33534724 0.21823804 -3.3423989e+38
0.34141913 0.33158761 0.21999133 -3.3163853e+38
0.34136325 0.32961088 0.21910463 -3.3695548e+38
0.34134054 0.32570133 0.21826155 -3.3423472e+38
0.34148499 0.32384315 0.21945797 nan
0.34141791 0.31990683 0.2181406 -3.2895407e+38
0.34160697 0.318077 0.21980214 -3.3429182e+38
0.34157169 0.31610739 0.21912725 -3.3693995e+38
0.34157971 0.31416276 0.21890017 nan
0.34168375 0.31228188 0.2196757 nan
0.34165329 0.31031373 0.21904939 -3.3557435e+38
0.34169316 0.30838966 0.21914902 -3.1960269e+38
0.34157422 0.30635646 0.2175952 -3.1694421e+38
0.34184277 0.3045913 0.22008924 -3.156046e+38
0.3417891 0.30260423 0.21921416 -3.2091114e+38
0.34058109 0.29192489 0.2049768 -2.1415655e+38
0.34100243 0.29029828 0.20907168 -2.7152664e+38
0.34116077 0.28845686 0.21041943 -3.0350622e+38
0.34137213 0.28665575 0.21231115 -3.0749916e+38
0.34139746 0.28471762 0.21228234 -3.0350626e+38
0.34146106 0.28084549 0.21228057 -2.9684966e+38
0.34145939 0.27888218 0.21193884 -2.95536e+38
0.34169322 0.27514499 0.2137409 -3.0484591e+38
0.34167704 0.27120966 0.21293016 -3.0482506e+38
0.34175643 0.26931354 0.21344109 -3.0084253e+38
0.34171474 0.26731619 0.21267995 -3.0618549e+38
0.34182617 0.26544565 0.21352185 -3.0085815e+38
0.34180498 0.26346341 0.21297209 -3.0219259e+38
0.34180498 0.2595349 0.21232212 -3.1151284e+38
0.34187394 0.25762948 0.2127433 -3.1018362e+38
0.34190518 0.25372452 0.21241589 -3.0486668e+38
0.34228563 0.24423619 0.21473773 -3.0615952e+38
0.34235516 0.24233173 0.2151262 -2.9952373e+38
0.34250563 0.23853964 0.21604814 -3.0085815e+38
0.34268811 0.23084523 0.2166366 -3.0616991e+38
0.34289488 0.2152818 0.21611434 -3.0618553e+38
0.34324101 0.19985504 0.21706308 nan
0.3432765 0.19396123 0.21637806 -3.1814858e+38
0.34321842 0.18993603 0.21510586 -3.1284733e+38
0.34333447 0.18808979 0.21595463 -3.0484593e+38
0.34339243 0.18617463 0.21624453 -3.0352186e+38
0.34361011 0.18444905 0.2181901 -3.0219267e+38
0.34384352 0.18273634 0.22024164 -2.5817737e+38
0.3430092 0.17775384 0.21067663 -1.9282661e+38
0.34334537 0.17618269 0.2139111 -1.994832e+38
0.34352115 0.17242447 0.21505322 -2.19458e+38
0.34381416 0.17082076 0.21788479 -2.1948399e+38
0.34350324 0.16248316 0.21319064 -2.7151113e+38
0.34355566 0.16056131 0.21339829 -2.8217616e+38
0.34379309 0.15688407 0.21519053 -2.9151721e+38
0.34380764 0.15491238 0.21499066 -2.9420165e+38
0.34383059 0.15095642 0.21450494 -2.8750865e+38
0.34359416 0.14865798 0.2116702 -2.8085211e+38
0.34364694 0.14672357 0.21187808 -2.9286727e+38
0.34385753 0.14501747 0.21376772 -2.9285684e+38
0.34392822 0.14311382 0.2141234 -2.9818414e+38
0.34396094 0.13916852 0.21375176 -2.9951341e+38
0.34413624 0.13541472 0.21488446 -2.9151711e+38
0.34413952 0.13342033 0.21455558 -2.9550481e+38
0.34434074 0.12970559 0.21596414 -3.0350105e+38
0.34426337 0.12760048 0.21478727 -3.0749914e+38
0.34423259 0.12555723 0.21409523 -3.0217701e+38
0.34428141 0.12162387 0.21388675 -2.9278401e+38
0.34445277 0.1198677 0.21533285 -2.954321e+38
0.3445254 0.11596848 0.21536924 -2.9812171e+38
0.34460416 0.11207993 0.21547341 -2.9809053e+38
0.34447837 0.10989144 0.21377714 -2.9278392e+38
0.34481964 0.10839018 0.21702294 -2.9149118e+38
0.34482026 0.10637325 0.21657158 -2.4078798e+38
0.34475115 0.1042729 0.21552093 -2.5286563e+38
0.3445597 0.099978954 0.21280493 -2.6354097e+38
0.34484705 0.098407321 0.21546742 -2.8617947e+38
0.34477165 0.094275378 0.21393122 -3.0083215e+38
0.34496826 0.092567049 0.2156437 -3.0482504e+38
0.34495127 0.088521138 0.21472229 -3.0618547e+38
0.34522906 0.076885529 0.21542145 -3.0216659e+38
0.34492776 0.074382469 0.211852 -2.7412273e+38
0.34510648 0.070638366 0.21299294 -3.0617508e+38
0.34552985 0.06931445 0.21711205 -2.9417564e+38
0.34568846 0.065540619 0.21801855 -2.7277267e+38
0.34539124 0.052927081 0.21264529 -3.1683493e+38
0.34594074 0.043744441 0.21652171 -3.0216144e+38
0.31854734 0.93595773 0.076199964 -2.9687045e+38
0.31905454 0.93102938 0.080949917 -2.9552041e+38
0.31895855 0.9250508 0.07949049 -2.9951334e+38
0.31904575 0.92082179 0.080031283 -2.9819448e+38
0.31918439 0.91855788 0.081260845 -2.9952898e+38
0.31901801 0.91268957 0.079074942 -2.6216513e+38
0.31898803 0.91069651 0.078626081 -2.9018798e+38
0.31914657 0.90432078 0.079686634 -2.9687049e+38
0.31926945 0.90209109 0.08075729 -3.0352184e+38
0.31932774 0.89792341 0.080998957 -3.0085294e+38
0.31909248 0.89623696 0.078445263 -2.9953937e+38
0.31921199 0.89197636 0.079305038 -3.0217703e+38
0.31924769 0.8898831 0.079492152 -3.0750435e+38
0.31911179 0.885997 0.07776697 -2.9553605e+38
0.31928653 0.88368052 0.079355709 -2.9687053e+38
0.31929874 0.88165414 0.079298362 -3.0084778e+38
0.3192957 0.87757862 0.078915149 -3.0618027e+38
0.31923887 0.87561935 0.078186385 -3.0087898e+38
0.31947055 0.87122124 0.080164902 -2.995186e+38
0.31926009 0.86947066 0.077840567 -3.0349582e+38
0.31938443 0.86726379 0.078917354 -3.0616987e+38
0.3192988 0.86534572 0.077870838 -2.9821529e+38
0.31956133 0.86294407 0.080340259 -2.9821014e+38
0.31961104 0.86084121 0.080662534 -3.00853e+38
0.31952891 0.85688782 0.079492085 -3.0750433e+38
0.31943378 0.85497725 0.07832168 -2.968757e+38
0.31955445 0.8507483 0.079194956 -3.0884924e+38
0.31963122 0.84860969 0.079792678 -3.1415051e+38
0.31937557 0.84691566 0.077020369 -3.0884396e+38
0.31959686 0.84458643 0.079050682 -2.982205e+38
0.31963456 0.84250271 0.079248689 -2.9156396e+38
0.3195605 0.83853269 0.078143291 -3.1550578e+38
0.31977379 0.83622557 0.080114298 -3.1150767e+38
0.32000306 0.83186108 0.082038559 -2.8486056e+38
0.31975943 0.83014464 0.079382911 -2.8884307e+38
0.31971812 0.82612854 0.078595899 -2.9415477e+38
0.31973174 0.82407826 0.078576632 -2.8352089e+38
0.31968412 0.82210964 0.077852555 -2.8220728e+38
0.31970438 0.82005686 0.077893995 -2.9417556e+38
0.31989905 0.81778818 0.079678923 -3.2086959e+38
